2.876000022888183594e+01 2.900000000000000000e+01 2.915500068664550781e+01 2.926499938964843750e+01 2.937000083923339844e+01 2.938500022888183594e+01 2.938500022888183594e+01 2.950000000000000000e+01 2.978499984741210938e+01 3.009499931335449219e+01 3.037000083923339844e+01 3.069000053405761719e+01 3.099500083923339844e+01 3.119499969482421875e+01 3.140500068664550781e+01 3.165999984741210938e+01 3.190999984741210938e+01 3.213000106811523438e+01 3.232500076293945312e+01 3.254000091552734375e+01 3.279000091552734375e+01 3.313999938964843750e+01 3.347000122070312500e+01 3.377999877929687500e+01 3.403499984741210938e+01 3.425500106811523438e+01 3.443500137329101562e+01 3.465499877929687500e+01 3.481999969482421875e+01 3.497999954223632812e+01 3.518500137329101562e+01 3.536500167846679688e+01 3.547499847412109375e+01 3.558000183105468750e+01 3.577999877929687500e+01 3.596500015258789062e+01 3.604999923706054688e+01 3.605500030517578125e+01 3.611999893188476562e+01 3.616500091552734375e+01 3.624499893188476562e+01 3.641999816894531250e+01 3.655500030517578125e+01 3.662500000000000000e+01 3.663000106811523438e+01 3.673500061035156250e+01 3.677500152587890625e+01 3.675999832153320312e+01 3.691999816894531250e+01 3.704499816894531250e+01 3.713999938964843750e+01 3.722999954223632812e+01 3.731999969482421875e+01 3.747499847412109375e+01 3.766500091552734375e+01 3.777500152587890625e+01 3.788999938964843750e+01 3.800500106811523438e+01 3.808000183105468750e+01 3.818000030517578125e+01 3.827500152587890625e+01 3.831000137329101562e+01 3.831499862670898438e+01 3.829999923706054688e+01 3.836000061035156250e+01 3.831999969482421875e+01 3.820500183105468750e+01 3.813000106811523438e+01 3.800500106811523438e+01 3.784000015258789062e+01 3.768999862670898438e+01 3.754999923706054688e+01 3.739500045776367188e+01 3.725999832153320312e+01 3.715999984741210938e+01 3.706000137329101562e+01 3.689500045776367188e+01 3.679499816894531250e+01 3.665999984741210938e+01 3.662500000000000000e+01 3.677500152587890625e+01 3.681000137329101562e+01 3.668999862670898438e+01 3.654000091552734375e+01 3.636000061035156250e+01 3.622999954223632812e+01 3.607500076293945312e+01 3.595999908447265625e+01 3.601499938964843750e+01 3.611500167846679688e+01 3.611500167846679688e+01 3.600000000000000000e+01 3.590000152587890625e+01 3.590000152587890625e+01 3.590499877929687500e+01 3.583000183105468750e+01 3.575999832153320312e+01 3.545000076293945312e+01 3.510499954223632812e+01 3.483000183105468750e+01 3.457500076293945312e+01 3.427999877929687500e+01 3.400000000000000000e+01 3.371500015258789062e+01 3.344499969482421875e+01 3.320999908447265625e+01 3.302999877929687500e+01 3.281999969482421875e+01 3.252500152587890625e+01 3.222999954223632812e+01 3.195000076293945312e+01 3.179000091552734375e+01 3.159499931335449219e+01 3.137999916076660156e+01 3.113500022888183594e+01 3.086000061035156250e+01 3.062999916076660156e+01 3.050499916076660156e+01 3.047500038146972656e+01
2.870000076293945312e+01 2.889500045776367188e+01 2.903499984741210938e+01 2.918499946594238281e+01 2.920000076293945312e+01 2.917000007629394531e+01 2.922500038146972656e+01 2.954500007629394531e+01 2.988999938964843750e+01 3.017499923706054688e+01 3.046999931335449219e+01 3.082500076293945312e+01 3.108499908447265625e+01 3.121500015258789062e+01 3.136000061035156250e+01 3.160499954223632812e+01 3.185499954223632812e+01 3.215000152587890625e+01 3.237500000000000000e+01 3.259999847412109375e+01 3.281999969482421875e+01 3.310499954223632812e+01 3.338000106811523438e+01 3.360499954223632812e+01 3.387500000000000000e+01 3.414500045776367188e+01 3.438499832153320312e+01 3.453499984741210938e+01 3.472000122070312500e+01 3.494499969482421875e+01 3.511999893188476562e+01 3.523500061035156250e+01 3.533000183105468750e+01 3.552999877929687500e+01 3.573500061035156250e+01 3.584999847412109375e+01 3.586500167846679688e+01 3.590499877929687500e+01 3.595500183105468750e+01 3.595999908447265625e+01 3.609000015258789062e+01 3.625000000000000000e+01 3.633000183105468750e+01 3.636999893188476562e+01 3.639500045776367188e+01 3.650000000000000000e+01 3.652000045776367188e+01 3.654999923706054688e+01 3.671500015258789062e+01 3.686500167846679688e+01 3.695500183105468750e+01 3.706499862670898438e+01 3.720000076293945312e+01 3.745500183105468750e+01 3.757500076293945312e+01 3.758499908447265625e+01 3.774000167846679688e+01 3.784999847412109375e+01 3.795000076293945312e+01 3.804000091552734375e+01 3.811999893188476562e+01 3.815499877929687500e+01 3.815499877929687500e+01 3.813999938964843750e+01 3.818999862670898438e+01 3.816500091552734375e+01 3.808000183105468750e+01 3.799000167846679688e+01 3.778499984741210938e+01 3.764500045776367188e+01 3.752500152587890625e+01 3.738499832153320312e+01 3.725999832153320312e+01 3.712500000000000000e+01 3.696500015258789062e+01 3.683499908447265625e+01 3.672000122070312500e+01 3.659000015258789062e+01 3.647999954223632812e+01 3.640499877929687500e+01 3.650000000000000000e+01 3.661000061035156250e+01 3.650000000000000000e+01 3.636500167846679688e+01 3.620500183105468750e+01 3.606000137329101562e+01 3.593000030517578125e+01 3.581499862670898438e+01 3.581000137329101562e+01 3.590999984741210938e+01 3.593000030517578125e+01 3.584999847412109375e+01 3.565000152587890625e+01 3.564500045776367188e+01 3.567499923706054688e+01 3.567499923706054688e+01 3.558000183105468750e+01 3.544499969482421875e+01 3.513000106811523438e+01 3.484999847412109375e+01 3.459999847412109375e+01 3.429999923706054688e+01 3.402500152587890625e+01 3.373500061035156250e+01 3.346500015258789062e+01 3.317499923706054688e+01 3.295999908447265625e+01 3.269499969482421875e+01 3.238000106811523438e+01 3.211999893188476562e+01 3.182500076293945312e+01 3.161499977111816406e+01 3.137500000000000000e+01 3.123500061035156250e+01 3.104000091552734375e+01 3.082999992370605469e+01 3.060499954223632812e+01 3.036000061035156250e+01 3.019499969482421875e+01
2.868000030517578125e+01 2.881999969482421875e+01 2.898500061035156250e+01 2.904999923706054688e+01 2.903499984741210938e+01 2.897999954223632812e+01 2.923500061035156250e+01 2.955999946594238281e+01 2.985000038146972656e+01 3.013500022888183594e+01 3.044000053405761719e+01 3.082500076293945312e+01 3.114500045776367188e+01 3.138500022888183594e+01 3.157999992370605469e+01 3.172500038146972656e+01 3.187999916076660156e+01 3.219499969482421875e+01 3.243999862670898438e+01 3.265499877929687500e+01 3.286999893188476562e+01 3.308499908447265625e+01 3.334000015258789062e+01 3.359500122070312500e+01 3.384500122070312500e+01 3.406000137329101562e+01 3.420500183105468750e+01 3.443500137329101562e+01 3.465999984741210938e+01 3.484000015258789062e+01 3.499499893188476562e+01 3.503499984741210938e+01 3.527999877929687500e+01 3.549499893188476562e+01 3.562500000000000000e+01 3.563499832153320312e+01 3.566999816894531250e+01 3.574499893188476562e+01 3.575999832153320312e+01 3.581999969482421875e+01 3.597000122070312500e+01 3.609500122070312500e+01 3.613999938964843750e+01 3.613499832153320312e+01 3.618500137329101562e+01 3.624499893188476562e+01 3.625500106811523438e+01 3.638999938964843750e+01 3.656999969482421875e+01 3.663999938964843750e+01 3.674499893188476562e+01 3.693999862670898438e+01 3.722000122070312500e+01 3.733499908447265625e+01 3.736999893188476562e+01 3.747000122070312500e+01 3.759999847412109375e+01 3.770999908447265625e+01 3.782500076293945312e+01 3.789500045776367188e+01 3.795999908447265625e+01 3.799000167846679688e+01 3.800999832153320312e+01 3.799000167846679688e+01 3.804000091552734375e+01 3.803499984741210938e+01 3.793000030517578125e+01 3.777500152587890625e+01 3.761999893188476562e+01 3.749000167846679688e+01 3.738499832153320312e+01 3.725000000000000000e+01 3.710499954223632812e+01 3.695999908447265625e+01 3.678499984741210938e+01 3.665000152587890625e+01 3.657500076293945312e+01 3.645500183105468750e+01 3.634000015258789062e+01 3.628499984741210938e+01 3.630500030517578125e+01 3.638999938964843750e+01 3.634000015258789062e+01 3.624499893188476562e+01 3.609999847412109375e+01 3.595999908447265625e+01 3.579000091552734375e+01 3.565499877929687500e+01 3.558000183105468750e+01 3.568000030517578125e+01 3.575500106811523438e+01 3.570500183105468750e+01 3.547999954223632812e+01 3.537500000000000000e+01 3.538999938964843750e+01 3.540999984741210938e+01 3.541999816894531250e+01 3.532500076293945312e+01 3.516500091552734375e+01 3.489500045776367188e+01 3.465000152587890625e+01 3.435499954223632812e+01 3.406999969482421875e+01 3.377500152587890625e+01 3.352999877929687500e+01 3.325000000000000000e+01 3.299000167846679688e+01 3.269499969482421875e+01 3.240999984741210938e+01 3.206000137329101562e+01 3.175499916076660156e+01 3.152499961853027344e+01 3.130500030517578125e+01 3.111000061035156250e+01 3.092000007629394531e+01 3.072999954223632812e+01 3.052499961853027344e+01 3.030500030517578125e+01 3.002000045776367188e+01
2.863999938964843750e+01 2.876000022888183594e+01 2.882500076293945312e+01 2.887000083923339844e+01 2.878499984741210938e+01 2.888500022888183594e+01 2.921999931335449219e+01 2.953499984741210938e+01 2.980500030517578125e+01 3.008499908447265625e+01 3.035499954223632812e+01 3.062000083923339844e+01 3.091500091552734375e+01 3.123999977111816406e+01 3.157999992370605469e+01 3.184000015258789062e+01 3.206999969482421875e+01 3.225500106811523438e+01 3.240999984741210938e+01 3.268500137329101562e+01 3.290999984741210938e+01 3.312500000000000000e+01 3.338000106811523438e+01 3.356499862670898438e+01 3.374499893188476562e+01 3.394499969482421875e+01 3.418999862670898438e+01 3.440499877929687500e+01 3.454999923706054688e+01 3.468000030517578125e+01 3.475500106811523438e+01 3.496500015258789062e+01 3.523500061035156250e+01 3.540999984741210938e+01 3.541999816894531250e+01 3.540999984741210938e+01 3.551499938964843750e+01 3.558499908447265625e+01 3.559999847412109375e+01 3.572999954223632812e+01 3.585499954223632812e+01 3.593500137329101562e+01 3.595000076293945312e+01 3.593000030517578125e+01 3.597999954223632812e+01 3.601499938964843750e+01 3.602000045776367188e+01 3.622499847412109375e+01 3.635499954223632812e+01 3.638499832153320312e+01 3.664500045776367188e+01 3.695000076293945312e+01 3.709500122070312500e+01 3.718000030517578125e+01 3.716999816894531250e+01 3.734500122070312500e+01 3.743000030517578125e+01 3.758499908447265625e+01 3.767499923706054688e+01 3.773500061035156250e+01 3.778499984741210938e+01 3.780500030517578125e+01 3.780500030517578125e+01 3.777999877929687500e+01 3.788000106811523438e+01 3.783000183105468750e+01 3.769499969482421875e+01 3.753499984741210938e+01 3.739500045776367188e+01 3.734999847412109375e+01 3.718999862670898438e+01 3.709000015258789062e+01 3.690999984741210938e+01 3.677500152587890625e+01 3.666500091552734375e+01 3.654999923706054688e+01 3.640999984741210938e+01 3.634000015258789062e+01 3.622000122070312500e+01 3.617499923706054688e+01 3.615999984741210938e+01 3.624499893188476562e+01 3.620999908447265625e+01 3.616999816894531250e+01 3.600999832153320312e+01 3.582500076293945312e+01 3.566500091552734375e+01 3.552000045776367188e+01 3.538000106811523438e+01 3.543000030517578125e+01 3.551499938964843750e+01 3.552500152587890625e+01 3.533499908447265625e+01 3.509999847412109375e+01 3.508499908447265625e+01 3.515999984741210938e+01 3.520500183105468750e+01 3.520999908447265625e+01 3.507500076293945312e+01 3.493500137329101562e+01 3.470999908447265625e+01 3.444499969482421875e+01 3.415999984741210938e+01 3.386999893188476562e+01 3.359999847412109375e+01 3.335499954223632812e+01 3.303499984741210938e+01 3.277000045776367188e+01 3.248500061035156250e+01 3.216999816894531250e+01 3.191500091552734375e+01 3.168499946594238281e+01 3.142000007629394531e+01 3.117000007629394531e+01 3.093000030517578125e+01 3.065999984741210938e+01 3.037500000000000000e+01 3.017499923706054688e+01 2.995499992370605469e+01
2.864500045776367188e+01 2.868499946594238281e+01 2.870499992370605469e+01 2.867000007629394531e+01 2.855999946594238281e+01 2.882500076293945312e+01 2.913500022888183594e+01 2.942499923706054688e+01 2.968000030517578125e+01 2.990999984741210938e+01 3.014500045776367188e+01 3.036499977111816406e+01 3.079000091552734375e+01 3.110000038146972656e+01 3.140999984741210938e+01 3.170000076293945312e+01 3.204499816894531250e+01 3.231499862670898438e+01 3.260499954223632812e+01 3.275500106811523438e+01 3.292499923706054688e+01 3.313999938964843750e+01 3.334999847412109375e+01 3.356499862670898438e+01 3.375500106811523438e+01 3.397499847412109375e+01 3.413999938964843750e+01 3.425999832153320312e+01 3.441500091552734375e+01 3.450999832153320312e+01 3.466500091552734375e+01 3.489500045776367188e+01 3.506999969482421875e+01 3.513499832153320312e+01 3.511500167846679688e+01 3.520999908447265625e+01 3.536000061035156250e+01 3.541500091552734375e+01 3.547999954223632812e+01 3.560499954223632812e+01 3.565000152587890625e+01 3.567499923706054688e+01 3.567499923706054688e+01 3.564500045776367188e+01 3.571500015258789062e+01 3.575000000000000000e+01 3.586500167846679688e+01 3.603499984741210938e+01 3.611500167846679688e+01 3.638499832153320312e+01 3.663499832153320312e+01 3.682500076293945312e+01 3.693500137329101562e+01 3.700500106811523438e+01 3.700999832153320312e+01 3.713000106811523438e+01 3.727999877929687500e+01 3.742499923706054688e+01 3.748500061035156250e+01 3.752999877929687500e+01 3.759999847412109375e+01 3.763000106811523438e+01 3.763999938964843750e+01 3.758000183105468750e+01 3.768000030517578125e+01 3.763000106811523438e+01 3.749499893188476562e+01 3.736000061035156250e+01 3.724000167846679688e+01 3.713999938964843750e+01 3.705500030517578125e+01 3.685499954223632812e+01 3.672499847412109375e+01 3.663499832153320312e+01 3.654499816894531250e+01 3.644499969482421875e+01 3.630500030517578125e+01 3.614500045776367188e+01 3.606000137329101562e+01 3.599499893188476562e+01 3.595000076293945312e+01 3.610499954223632812e+01 3.609000015258789062e+01 3.600500106811523438e+01 3.591500091552734375e+01 3.571500015258789062e+01 3.555500030517578125e+01 3.538999938964843750e+01 3.523500061035156250e+01 3.516999816894531250e+01 3.525999832153320312e+01 3.531000137329101562e+01 3.518999862670898438e+01 3.493999862670898438e+01 3.477500152587890625e+01 3.479999923706054688e+01 3.487500000000000000e+01 3.494499969482421875e+01 3.495999908447265625e+01 3.482500076293945312e+01 3.468000030517578125e+01 3.449000167846679688e+01 3.427000045776367188e+01 3.396500015258789062e+01 3.368999862670898438e+01 3.337500000000000000e+01 3.304499816894531250e+01 3.278499984741210938e+01 3.252500152587890625e+01 3.224499893188476562e+01 3.200999832153320312e+01 3.179500007629394531e+01 3.150000000000000000e+01 3.125000000000000000e+01 3.101499938964843750e+01 3.076499938964843750e+01 3.056999969482421875e+01 3.030500030517578125e+01 2.998500061035156250e+01
2.856999969482421875e+01 2.860000038146972656e+01 2.859000015258789062e+01 2.845000076293945312e+01 2.842499923706054688e+01 2.872500038146972656e+01 2.899500083923339844e+01 2.925499916076660156e+01 2.945999908447265625e+01 2.968000030517578125e+01 2.993499946594238281e+01 3.026000022888183594e+01 3.060499954223632812e+01 3.088999938964843750e+01 3.114500045776367188e+01 3.148999977111816406e+01 3.182500076293945312e+01 3.220999908447265625e+01 3.255500030517578125e+01 3.280500030517578125e+01 3.303499984741210938e+01 3.318500137329101562e+01 3.336999893188476562e+01 3.353499984741210938e+01 3.367499923706054688e+01 3.381499862670898438e+01 3.394499969482421875e+01 3.408499908447265625e+01 3.420999908447265625e+01 3.436999893188476562e+01 3.455500030517578125e+01 3.472000122070312500e+01 3.479999923706054688e+01 3.481999969482421875e+01 3.488000106811523438e+01 3.505500030517578125e+01 3.513999938964843750e+01 3.521500015258789062e+01 3.536500167846679688e+01 3.541999816894531250e+01 3.543500137329101562e+01 3.542499923706054688e+01 3.540999984741210938e+01 3.539500045776367188e+01 3.548500061035156250e+01 3.554999923706054688e+01 3.566500091552734375e+01 3.577999877929687500e+01 3.609000015258789062e+01 3.638000106811523438e+01 3.658000183105468750e+01 3.670500183105468750e+01 3.677999877929687500e+01 3.679000091552734375e+01 3.681999969482421875e+01 3.692499923706054688e+01 3.708000183105468750e+01 3.720500183105468750e+01 3.722999954223632812e+01 3.726499938964843750e+01 3.736500167846679688e+01 3.741999816894531250e+01 3.742499923706054688e+01 3.738499832153320312e+01 3.747000122070312500e+01 3.740000152587890625e+01 3.729499816894531250e+01 3.718500137329101562e+01 3.706499862670898438e+01 3.695500183105468750e+01 3.681000137329101562e+01 3.667499923706054688e+01 3.656999969482421875e+01 3.647999954223632812e+01 3.639500045776367188e+01 3.629999923706054688e+01 3.616999816894531250e+01 3.599000167846679688e+01 3.586000061035156250e+01 3.575999832153320312e+01 3.572999954223632812e+01 3.588999938964843750e+01 3.600000000000000000e+01 3.583499908447265625e+01 3.580500030517578125e+01 3.561999893188476562e+01 3.542499923706054688e+01 3.527000045776367188e+01 3.510499954223632812e+01 3.493999862670898438e+01 3.497999954223632812e+01 3.507500076293945312e+01 3.501499938964843750e+01 3.479000091552734375e+01 3.462500000000000000e+01 3.450000000000000000e+01 3.451499938964843750e+01 3.459000015258789062e+01 3.465000152587890625e+01 3.466999816894531250e+01 3.457500076293945312e+01 3.440999984741210938e+01 3.427000045776367188e+01 3.404499816894531250e+01 3.381000137329101562e+01 3.347499847412109375e+01 3.315499877929687500e+01 3.284999847412109375e+01 3.257500076293945312e+01 3.229499816894531250e+01 3.202999877929687500e+01 3.177499961853027344e+01 3.150000000000000000e+01 3.123500061035156250e+01 3.099500083923339844e+01 3.075499916076660156e+01 3.052499961853027344e+01 3.031999969482421875e+01 3.009499931335449219e+01
2.846500015258789062e+01 2.847500038146972656e+01 2.843000030517578125e+01 2.823500061035156250e+01 2.832500076293945312e+01 2.859000015258789062e+01 2.881999969482421875e+01 2.909000015258789062e+01 2.932500076293945312e+01 2.958499908447265625e+01 2.978499984741210938e+01 3.008499908447265625e+01 3.042000007629394531e+01 3.073500061035156250e+01 3.104500007629394531e+01 3.143000030517578125e+01 3.175000000000000000e+01 3.206999969482421875e+01 3.241500091552734375e+01 3.270000076293945312e+01 3.293000030517578125e+01 3.309000015258789062e+01 3.325000000000000000e+01 3.338999938964843750e+01 3.351499938964843750e+01 3.361000061035156250e+01 3.372999954223632812e+01 3.384999847412109375e+01 3.399000167846679688e+01 3.416500091552734375e+01 3.436999893188476562e+01 3.452000045776367188e+01 3.459000015258789062e+01 3.463999938964843750e+01 3.473500061035156250e+01 3.484000015258789062e+01 3.495999908447265625e+01 3.514500045776367188e+01 3.521500015258789062e+01 3.522999954223632812e+01 3.522499847412109375e+01 3.521500015258789062e+01 3.520000076293945312e+01 3.519499969482421875e+01 3.525000000000000000e+01 3.540000152587890625e+01 3.547499847412109375e+01 3.577500152587890625e+01 3.608000183105468750e+01 3.631999969482421875e+01 3.647999954223632812e+01 3.658499908447265625e+01 3.665000152587890625e+01 3.660499954223632812e+01 3.665000152587890625e+01 3.674499893188476562e+01 3.686999893188476562e+01 3.690000152587890625e+01 3.691500091552734375e+01 3.700000000000000000e+01 3.713999938964843750e+01 3.718000030517578125e+01 3.719499969482421875e+01 3.717499923706054688e+01 3.727000045776367188e+01 3.720500183105468750e+01 3.711999893188476562e+01 3.702999877929687500e+01 3.686999893188476562e+01 3.665999984741210938e+01 3.658000183105468750e+01 3.650000000000000000e+01 3.642499923706054688e+01 3.631000137329101562e+01 3.618500137329101562e+01 3.610499954223632812e+01 3.600000000000000000e+01 3.583000183105468750e+01 3.565499877929687500e+01 3.561500167846679688e+01 3.553499984741210938e+01 3.564500045776367188e+01 3.579499816894531250e+01 3.570999908447265625e+01 3.563499832153320312e+01 3.551499938964843750e+01 3.531499862670898438e+01 3.515999984741210938e+01 3.497999954223632812e+01 3.480500030517578125e+01 3.477000045776367188e+01 3.484000015258789062e+01 3.481499862670898438e+01 3.465000152587890625e+01 3.447000122070312500e+01 3.431000137329101562e+01 3.422999954223632812e+01 3.422999954223632812e+01 3.427000045776367188e+01 3.432500076293945312e+01 3.436500167846679688e+01 3.431999969482421875e+01 3.418000030517578125e+01 3.402500152587890625e+01 3.379999923706054688e+01 3.350000000000000000e+01 3.314500045776367188e+01 3.284999847412109375e+01 3.254000091552734375e+01 3.225000000000000000e+01 3.195999908447265625e+01 3.171500015258789062e+01 3.143499946594238281e+01 3.120000076293945312e+01 3.095499992370605469e+01 3.072500038146972656e+01 3.050000000000000000e+01 3.027499961853027344e+01 3.006500053405761719e+01
2.831500053405761719e+01 2.831500053405761719e+01 2.822999954223632812e+01 2.801000022888183594e+01 2.825000000000000000e+01 2.852000045776367188e+01 2.875000000000000000e+01 2.897999954223632812e+01 2.920499992370605469e+01 2.946500015258789062e+01 2.973500061035156250e+01 3.004000091552734375e+01 3.043000030517578125e+01 3.070499992370605469e+01 3.100000000000000000e+01 3.136000061035156250e+01 3.165999984741210938e+01 3.189999961853027344e+01 3.218000030517578125e+01 3.243999862670898438e+01 3.268500137329101562e+01 3.286000061035156250e+01 3.300500106811523438e+01 3.314500045776367188e+01 3.325999832153320312e+01 3.334000015258789062e+01 3.347999954223632812e+01 3.361500167846679688e+01 3.377999877929687500e+01 3.395500183105468750e+01 3.415999984741210938e+01 3.432500076293945312e+01 3.442499923706054688e+01 3.447499847412109375e+01 3.458499908447265625e+01 3.479999923706054688e+01 3.493999862670898438e+01 3.497999954223632812e+01 3.500500106811523438e+01 3.501499938964843750e+01 3.501499938964843750e+01 3.500999832153320312e+01 3.499499893188476562e+01 3.498500061035156250e+01 3.505500030517578125e+01 3.520000076293945312e+01 3.550000000000000000e+01 3.575000000000000000e+01 3.602000045776367188e+01 3.621500015258789062e+01 3.635499954223632812e+01 3.645000076293945312e+01 3.650999832153320312e+01 3.640999984741210938e+01 3.646500015258789062e+01 3.656499862670898438e+01 3.661500167846679688e+01 3.661999893188476562e+01 3.662500000000000000e+01 3.677000045776367188e+01 3.688999938964843750e+01 3.693999862670898438e+01 3.694499969482421875e+01 3.698500061035156250e+01 3.708499908447265625e+01 3.704499816894531250e+01 3.693999862670898438e+01 3.677000045776367188e+01 3.660499954223632812e+01 3.643999862670898438e+01 3.637500000000000000e+01 3.631499862670898438e+01 3.622499847412109375e+01 3.611500167846679688e+01 3.596500015258789062e+01 3.580500030517578125e+01 3.576499938964843750e+01 3.564500045776367188e+01 3.549000167846679688e+01 3.540000152587890625e+01 3.534000015258789062e+01 3.541999816894531250e+01 3.554499816894531250e+01 3.554999923706054688e+01 3.539500045776367188e+01 3.539500045776367188e+01 3.521500015258789062e+01 3.504000091552734375e+01 3.486500167846679688e+01 3.469499969482421875e+01 3.458499908447265625e+01 3.463000106811523438e+01 3.461500167846679688e+01 3.448500061035156250e+01 3.433000183105468750e+01 3.418000030517578125e+01 3.402000045776367188e+01 3.397499847412109375e+01 3.398500061035156250e+01 3.402500152587890625e+01 3.405500030517578125e+01 3.402999877929687500e+01 3.400000000000000000e+01 3.395000076293945312e+01 3.379999923706054688e+01 3.352000045776367188e+01 3.320999908447265625e+01 3.286500167846679688e+01 3.256000137329101562e+01 3.228499984741210938e+01 3.201499938964843750e+01 3.175499916076660156e+01 3.148999977111816406e+01 3.118000030517578125e+01 3.095499992370605469e+01 3.067000007629394531e+01 3.040999984741210938e+01 3.017000007629394531e+01 2.994499969482421875e+01
2.806999969482421875e+01 2.805500030517578125e+01 2.789500045776367188e+01 2.794000053405761719e+01 2.819499969482421875e+01 2.844000053405761719e+01 2.867499923706054688e+01 2.891500091552734375e+01 2.915500068664550781e+01 2.941500091552734375e+01 2.969000053405761719e+01 2.999500083923339844e+01 3.038500022888183594e+01 3.066500091552734375e+01 3.093000030517578125e+01 3.121999931335449219e+01 3.150499916076660156e+01 3.172500038146972656e+01 3.189999961853027344e+01 3.216500091552734375e+01 3.238499832153320312e+01 3.261500167846679688e+01 3.277500152587890625e+01 3.290999984741210938e+01 3.297499847412109375e+01 3.312500000000000000e+01 3.325999832153320312e+01 3.345999908447265625e+01 3.356499862670898438e+01 3.376499938964843750e+01 3.392499923706054688e+01 3.408499908447265625e+01 3.420000076293945312e+01 3.430500030517578125e+01 3.455500030517578125e+01 3.477000045776367188e+01 3.475999832153320312e+01 3.475000000000000000e+01 3.476499938964843750e+01 3.477500152587890625e+01 3.477000045776367188e+01 3.476499938964843750e+01 3.472999954223632812e+01 3.476499938964843750e+01 3.492499923706054688e+01 3.520500183105468750e+01 3.538999938964843750e+01 3.566999816894531250e+01 3.593000030517578125e+01 3.609999847412109375e+01 3.621500015258789062e+01 3.633499908447265625e+01 3.637500000000000000e+01 3.629000091552734375e+01 3.627500152587890625e+01 3.631999969482421875e+01 3.633000183105468750e+01 3.631999969482421875e+01 3.631999969482421875e+01 3.647000122070312500e+01 3.659000015258789062e+01 3.665999984741210938e+01 3.665000152587890625e+01 3.681000137329101562e+01 3.688499832153320312e+01 3.678499984741210938e+01 3.665999984741210938e+01 3.652000045776367188e+01 3.636500167846679688e+01 3.620999908447265625e+01 3.613000106811523438e+01 3.608499908447265625e+01 3.598500061035156250e+01 3.588000106811523438e+01 3.575500106811523438e+01 3.556499862670898438e+01 3.552999877929687500e+01 3.543500137329101562e+01 3.529000091552734375e+01 3.515999984741210938e+01 3.514500045776367188e+01 3.516999816894531250e+01 3.527000045776367188e+01 3.536000061035156250e+01 3.527500152587890625e+01 3.522999954223632812e+01 3.513999938964843750e+01 3.493500137329101562e+01 3.475500106811523438e+01 3.461000061035156250e+01 3.446500015258789062e+01 3.445999908447265625e+01 3.441999816894531250e+01 3.434000015258789062e+01 3.420999908447265625e+01 3.407500076293945312e+01 3.391999816894531250e+01 3.374000167846679688e+01 3.367499923706054688e+01 3.368999862670898438e+01 3.368000030517578125e+01 3.365000152587890625e+01 3.363999938964843750e+01 3.361500167846679688e+01 3.360499954223632812e+01 3.345500183105468750e+01 3.322000122070312500e+01 3.293500137329101562e+01 3.265000152587890625e+01 3.234000015258789062e+01 3.208000183105468750e+01 3.184499931335449219e+01 3.160000038146972656e+01 3.131999969482421875e+01 3.105500030517578125e+01 3.078000068664550781e+01 3.046999931335449219e+01 3.020999908447265625e+01 3.001000022888183594e+01
2.784000015258789062e+01 2.771999931335449219e+01 2.773999977111816406e+01 2.795499992370605469e+01 2.817000007629394531e+01 2.840999984741210938e+01 2.862999916076660156e+01 2.888500022888183594e+01 2.915999984741210938e+01 2.943000030517578125e+01 2.970499992370605469e+01 2.998500061035156250e+01 3.031999969482421875e+01 3.059000015258789062e+01 3.078499984741210938e+01 3.103499984741210938e+01 3.126000022888183594e+01 3.148500061035156250e+01 3.170499992370605469e+01 3.190999984741210938e+01 3.209500122070312500e+01 3.234999847412109375e+01 3.255500030517578125e+01 3.265499877929687500e+01 3.270000076293945312e+01 3.289500045776367188e+01 3.307500076293945312e+01 3.318000030517578125e+01 3.337500000000000000e+01 3.357500076293945312e+01 3.369499969482421875e+01 3.381999969482421875e+01 3.395999908447265625e+01 3.423500061035156250e+01 3.445999908447265625e+01 3.452000045776367188e+01 3.448500061035156250e+01 3.445500183105468750e+01 3.452500152587890625e+01 3.458000183105468750e+01 3.459500122070312500e+01 3.456999969482421875e+01 3.450999832153320312e+01 3.469499969482421875e+01 3.480500030517578125e+01 3.500500106811523438e+01 3.528499984741210938e+01 3.556999969482421875e+01 3.581000137329101562e+01 3.595000076293945312e+01 3.611000061035156250e+01 3.620999908447265625e+01 3.620999908447265625e+01 3.613499832153320312e+01 3.609000015258789062e+01 3.611500167846679688e+01 3.613499832153320312e+01 3.612500000000000000e+01 3.610499954223632812e+01 3.617499923706054688e+01 3.624000167846679688e+01 3.640999984741210938e+01 3.637500000000000000e+01 3.665000152587890625e+01 3.665000152587890625e+01 3.653499984741210938e+01 3.638999938964843750e+01 3.625500106811523438e+01 3.609999847412109375e+01 3.593000030517578125e+01 3.583000183105468750e+01 3.582500076293945312e+01 3.575999832153320312e+01 3.565499877929687500e+01 3.553499984741210938e+01 3.540499877929687500e+01 3.529999923706054688e+01 3.524000167846679688e+01 3.511500167846679688e+01 3.499000167846679688e+01 3.496500015258789062e+01 3.496500015258789062e+01 3.502500152587890625e+01 3.516999816894531250e+01 3.517499923706054688e+01 3.505500030517578125e+01 3.504000091552734375e+01 3.486500167846679688e+01 3.468000030517578125e+01 3.450999832153320312e+01 3.436500167846679688e+01 3.432500076293945312e+01 3.429000091552734375e+01 3.422999954223632812e+01 3.411999893188476562e+01 3.399499893188476562e+01 3.383000183105468750e+01 3.363000106811523438e+01 3.345500183105468750e+01 3.340999984741210938e+01 3.336000061035156250e+01 3.331499862670898438e+01 3.333499908447265625e+01 3.335499954223632812e+01 3.336999893188476562e+01 3.334000015258789062e+01 3.320500183105468750e+01 3.294499969482421875e+01 3.265000152587890625e+01 3.235499954223632812e+01 3.208499908447265625e+01 3.186499977111816406e+01 3.161499977111816406e+01 3.137000083923339844e+01 3.111499977111816406e+01 3.082999992370605469e+01 3.053499984741210938e+01 3.031500053405761719e+01 3.010499954223632812e+01
2.752000045776367188e+01 2.760000038146972656e+01 2.779000091552734375e+01 2.804000091552734375e+01 2.822500038146972656e+01 2.842499923706054688e+01 2.861000061035156250e+01 2.881500053405761719e+01 2.909000015258789062e+01 2.939999961853027344e+01 2.965999984741210938e+01 2.994000053405761719e+01 3.020000076293945312e+01 3.044499969482421875e+01 3.062500000000000000e+01 3.080999946594238281e+01 3.102000045776367188e+01 3.131999969482421875e+01 3.155500030517578125e+01 3.170499992370605469e+01 3.190999984741210938e+01 3.215499877929687500e+01 3.227500152587890625e+01 3.233499908447265625e+01 3.248500061035156250e+01 3.270999908447265625e+01 3.279999923706054688e+01 3.290999984741210938e+01 3.316500091552734375e+01 3.334500122070312500e+01 3.345000076293945312e+01 3.370500183105468750e+01 3.400500106811523438e+01 3.418500137329101562e+01 3.427999877929687500e+01 3.428499984741210938e+01 3.425999832153320312e+01 3.425500106811523438e+01 3.431000137329101562e+01 3.436999893188476562e+01 3.438000106811523438e+01 3.433000183105468750e+01 3.440499877929687500e+01 3.456999969482421875e+01 3.463999938964843750e+01 3.490000152587890625e+01 3.518000030517578125e+01 3.543000030517578125e+01 3.565000152587890625e+01 3.584500122070312500e+01 3.597000122070312500e+01 3.602000045776367188e+01 3.602000045776367188e+01 3.594499969482421875e+01 3.588499832153320312e+01 3.588000106811523438e+01 3.590499877929687500e+01 3.588499832153320312e+01 3.582500076293945312e+01 3.586000061035156250e+01 3.597000122070312500e+01 3.613000106811523438e+01 3.628499984741210938e+01 3.646500015258789062e+01 3.641999816894531250e+01 3.627500152587890625e+01 3.611000061035156250e+01 3.595000076293945312e+01 3.580500030517578125e+01 3.563499832153320312e+01 3.552500152587890625e+01 3.554000091552734375e+01 3.550999832153320312e+01 3.540999984741210938e+01 3.531499862670898438e+01 3.521500015258789062e+01 3.507500076293945312e+01 3.502500152587890625e+01 3.493500137329101562e+01 3.483000183105468750e+01 3.472999954223632812e+01 3.473500061035156250e+01 3.479000091552734375e+01 3.490000152587890625e+01 3.498500061035156250e+01 3.490999984741210938e+01 3.485499954223632812e+01 3.480500030517578125e+01 3.459500122070312500e+01 3.439500045776367188e+01 3.427999877929687500e+01 3.420000076293945312e+01 3.420000076293945312e+01 3.413999938964843750e+01 3.404499816894531250e+01 3.390999984741210938e+01 3.373500061035156250e+01 3.354999923706054688e+01 3.334500122070312500e+01 3.318500137329101562e+01 3.311999893188476562e+01 3.296500015258789062e+01 3.298500061035156250e+01 3.302500152587890625e+01 3.308000183105468750e+01 3.315999984741210938e+01 3.313499832153320312e+01 3.284500122070312500e+01 3.254999923706054688e+01 3.227999877929687500e+01 3.204499816894531250e+01 3.178000068664550781e+01 3.157500076293945312e+01 3.131999969482421875e+01 3.109000015258789062e+01 3.081999969482421875e+01 3.057500076293945312e+01 3.036499977111816406e+01 3.012999916076660156e+01
2.738999938964843750e+01 2.761499977111816406e+01 2.781999969482421875e+01 2.805500030517578125e+01 2.822500038146972656e+01 2.838500022888183594e+01 2.854500007629394531e+01 2.872999954223632812e+01 2.899500083923339844e+01 2.926000022888183594e+01 2.951000022888183594e+01 2.973500061035156250e+01 2.997999954223632812e+01 3.022500038146972656e+01 3.045000076293945312e+01 3.069499969482421875e+01 3.095999908447265625e+01 3.115999984741210938e+01 3.135000038146972656e+01 3.157999992370605469e+01 3.179500007629394531e+01 3.195000076293945312e+01 3.197999954223632812e+01 3.204499816894531250e+01 3.227500152587890625e+01 3.243000030517578125e+01 3.254499816894531250e+01 3.274499893188476562e+01 3.288999938964843750e+01 3.307500076293945312e+01 3.344499969482421875e+01 3.369499969482421875e+01 3.390499877929687500e+01 3.400000000000000000e+01 3.403499984741210938e+01 3.404499816894531250e+01 3.404499816894531250e+01 3.402999877929687500e+01 3.410499954223632812e+01 3.420500183105468750e+01 3.417499923706054688e+01 3.397999954223632812e+01 3.439500045776367188e+01 3.436500167846679688e+01 3.451499938964843750e+01 3.479000091552734375e+01 3.506000137329101562e+01 3.531000137329101562e+01 3.553499984741210938e+01 3.565499877929687500e+01 3.574000167846679688e+01 3.577500152587890625e+01 3.575999832153320312e+01 3.570000076293945312e+01 3.565000152587890625e+01 3.561999893188476562e+01 3.563999938964843750e+01 3.563000106811523438e+01 3.559500122070312500e+01 3.559000015258789062e+01 3.577999877929687500e+01 3.591999816894531250e+01 3.621500015258789062e+01 3.629499816894531250e+01 3.620000076293945312e+01 3.596500015258789062e+01 3.574000167846679688e+01 3.559500122070312500e+01 3.538999938964843750e+01 3.531999969482421875e+01 3.530500030517578125e+01 3.533499908447265625e+01 3.530500030517578125e+01 3.521500015258789062e+01 3.513000106811523438e+01 3.504499816894531250e+01 3.491999816894531250e+01 3.474000167846679688e+01 3.468999862670898438e+01 3.460499954223632812e+01 3.451499938964843750e+01 3.449499893188476562e+01 3.452999877929687500e+01 3.456999969482421875e+01 3.474000167846679688e+01 3.478499984741210938e+01 3.465999984741210938e+01 3.465499877929687500e+01 3.448500061035156250e+01 3.430500030517578125e+01 3.418999862670898438e+01 3.411500167846679688e+01 3.408499908447265625e+01 3.406499862670898438e+01 3.400999832153320312e+01 3.381999969482421875e+01 3.363000106811523438e+01 3.345000076293945312e+01 3.323500061035156250e+01 3.304000091552734375e+01 3.288499832153320312e+01 3.275000000000000000e+01 3.266999816894531250e+01 3.268000030517578125e+01 3.270999908447265625e+01 3.281000137329101562e+01 3.284000015258789062e+01 3.272000122070312500e+01 3.249499893188476562e+01 3.224000167846679688e+01 3.196500015258789062e+01 3.170000076293945312e+01 3.151000022888183594e+01 3.130500030517578125e+01 3.106500053405761719e+01 3.086499977111816406e+01 3.064999961853027344e+01 3.046500015258789062e+01 3.026499938964843750e+01
2.740999984741210938e+01 2.761000061035156250e+01 2.780500030517578125e+01 2.804000091552734375e+01 2.819000053405761719e+01 2.831999969482421875e+01 2.845000076293945312e+01 2.861000061035156250e+01 2.879999923706054688e+01 2.903000068664550781e+01 2.923500061035156250e+01 2.947500038146972656e+01 2.979000091552734375e+01 3.012999916076660156e+01 3.040500068664550781e+01 3.062999916076660156e+01 3.082999992370605469e+01 3.098500061035156250e+01 3.114500045776367188e+01 3.139999961853027344e+01 3.157999992370605469e+01 3.166500091552734375e+01 3.169000053405761719e+01 3.186499977111816406e+01 3.202999877929687500e+01 3.217499923706054688e+01 3.235499954223632812e+01 3.253499984741210938e+01 3.270000076293945312e+01 3.308499908447265625e+01 3.334000015258789062e+01 3.352999877929687500e+01 3.373500061035156250e+01 3.379999923706054688e+01 3.379499816894531250e+01 3.377500152587890625e+01 3.376499938964843750e+01 3.379499816894531250e+01 3.391500091552734375e+01 3.401499938964843750e+01 3.391999816894531250e+01 3.400000000000000000e+01 3.416999816894531250e+01 3.419499969482421875e+01 3.435499954223632812e+01 3.461999893188476562e+01 3.490000152587890625e+01 3.515999984741210938e+01 3.535499954223632812e+01 3.547999954223632812e+01 3.554000091552734375e+01 3.555500030517578125e+01 3.554499816894531250e+01 3.548500061035156250e+01 3.544499969482421875e+01 3.540000152587890625e+01 3.543500137329101562e+01 3.541999816894531250e+01 3.538999938964843750e+01 3.547999954223632812e+01 3.558499908447265625e+01 3.585499954223632812e+01 3.609000015258789062e+01 3.612500000000000000e+01 3.594499969482421875e+01 3.568000030517578125e+01 3.537500000000000000e+01 3.522499847412109375e+01 3.512500000000000000e+01 3.504999923706054688e+01 3.504000091552734375e+01 3.514500045776367188e+01 3.512500000000000000e+01 3.502999877929687500e+01 3.493999862670898438e+01 3.485499954223632812e+01 3.472499847412109375e+01 3.447000122070312500e+01 3.439500045776367188e+01 3.435499954223632812e+01 3.432500076293945312e+01 3.431499862670898438e+01 3.432500076293945312e+01 3.433499908447265625e+01 3.446500015258789062e+01 3.461500167846679688e+01 3.453499984741210938e+01 3.447999954223632812e+01 3.441500091552734375e+01 3.422000122070312500e+01 3.409000015258789062e+01 3.399000167846679688e+01 3.398500061035156250e+01 3.399000167846679688e+01 3.393000030517578125e+01 3.373500061035156250e+01 3.352500152587890625e+01 3.334500122070312500e+01 3.311999893188476562e+01 3.292499923706054688e+01 3.270500183105468750e+01 3.254499816894531250e+01 3.240499877929687500e+01 3.237500000000000000e+01 3.236000061035156250e+01 3.245999908447265625e+01 3.252999877929687500e+01 3.254000091552734375e+01 3.247000122070312500e+01 3.231000137329101562e+01 3.204999923706054688e+01 3.173999977111816406e+01 3.143000030517578125e+01 3.111000061035156250e+01 3.087500000000000000e+01 3.074500083923339844e+01 3.056999969482421875e+01 3.034000015258789062e+01 3.024500083923339844e+01
2.740999984741210938e+01 2.760499954223632812e+01 2.778000068664550781e+01 2.801000022888183594e+01 2.813999938964843750e+01 2.824500083923339844e+01 2.831500053405761719e+01 2.839500045776367188e+01 2.855500030517578125e+01 2.879999923706054688e+01 2.911000061035156250e+01 2.939999961853027344e+01 2.966500091552734375e+01 3.004000091552734375e+01 3.030500030517578125e+01 3.051499938964843750e+01 3.066500091552734375e+01 3.079999923706054688e+01 3.094000053405761719e+01 3.111499977111816406e+01 3.126000022888183594e+01 3.132500076293945312e+01 3.151499938964843750e+01 3.168499946594238281e+01 3.182999992370605469e+01 3.195499992370605469e+01 3.215499877929687500e+01 3.234000015258789062e+01 3.270500183105468750e+01 3.293000030517578125e+01 3.311000061035156250e+01 3.324000167846679688e+01 3.347999954223632812e+01 3.352500152587890625e+01 3.350500106811523438e+01 3.349499893188476562e+01 3.350999832153320312e+01 3.361000061035156250e+01 3.374000167846679688e+01 3.376499938964843750e+01 3.367499923706054688e+01 3.393500137329101562e+01 3.399499893188476562e+01 3.408499908447265625e+01 3.423500061035156250e+01 3.443500137329101562e+01 3.470999908447265625e+01 3.496500015258789062e+01 3.518000030517578125e+01 3.532500076293945312e+01 3.536999893188476562e+01 3.537500000000000000e+01 3.535499954223632812e+01 3.529999923706054688e+01 3.522000122070312500e+01 3.518000030517578125e+01 3.522000122070312500e+01 3.520999908447265625e+01 3.519499969482421875e+01 3.536000061035156250e+01 3.554999923706054688e+01 3.577500152587890625e+01 3.597999954223632812e+01 3.591999816894531250e+01 3.568000030517578125e+01 3.536000061035156250e+01 3.515000152587890625e+01 3.502500152587890625e+01 3.490999984741210938e+01 3.475000000000000000e+01 3.470000076293945312e+01 3.487500000000000000e+01 3.488999938964843750e+01 3.484000015258789062e+01 3.474000167846679688e+01 3.466999816894531250e+01 3.458499908447265625e+01 3.440499877929687500e+01 3.422000122070312500e+01 3.418999862670898438e+01 3.414500045776367188e+01 3.416500091552734375e+01 3.419499969482421875e+01 3.416999816894531250e+01 3.425000000000000000e+01 3.438999938964843750e+01 3.440499877929687500e+01 3.431499862670898438e+01 3.429499816894531250e+01 3.413000106811523438e+01 3.398500061035156250e+01 3.391999816894531250e+01 3.389500045776367188e+01 3.384000015258789062e+01 3.375999832153320312e+01 3.361000061035156250e+01 3.343000030517578125e+01 3.323500061035156250e+01 3.302500152587890625e+01 3.281000137329101562e+01 3.259999847412109375e+01 3.238499832153320312e+01 3.224499893188476562e+01 3.211999893188476562e+01 3.209500122070312500e+01 3.217499923706054688e+01 3.222000122070312500e+01 3.223500061035156250e+01 3.224499893188476562e+01 3.218000030517578125e+01 3.195999908447265625e+01 3.165500068664550781e+01 3.136499977111816406e+01 3.100499916076660156e+01 3.076000022888183594e+01 3.050000000000000000e+01 3.024500083923339844e+01 2.999500083923339844e+01 2.996999931335449219e+01
2.743000030517578125e+01 2.760000038146972656e+01 2.774500083923339844e+01 2.794000053405761719e+01 2.805500030517578125e+01 2.811000061035156250e+01 2.815500068664550781e+01 2.829999923706054688e+01 2.850000000000000000e+01 2.873500061035156250e+01 2.896500015258789062e+01 2.929500007629394531e+01 2.962999916076660156e+01 2.998999977111816406e+01 3.021500015258789062e+01 3.037500000000000000e+01 3.044499969482421875e+01 3.060000038146972656e+01 3.071500015258789062e+01 3.080999946594238281e+01 3.088999938964843750e+01 3.109000015258789062e+01 3.131500053405761719e+01 3.150499916076660156e+01 3.163999938964843750e+01 3.177499961853027344e+01 3.198500061035156250e+01 3.231000137329101562e+01 3.261500167846679688e+01 3.274000167846679688e+01 3.287500000000000000e+01 3.300000000000000000e+01 3.323500061035156250e+01 3.324000167846679688e+01 3.322999954223632812e+01 3.318500137329101562e+01 3.327500152587890625e+01 3.343000030517578125e+01 3.353499984741210938e+01 3.352999877929687500e+01 3.358000183105468750e+01 3.379000091552734375e+01 3.388999938964843750e+01 3.401499938964843750e+01 3.412500000000000000e+01 3.426499938964843750e+01 3.449000167846679688e+01 3.478499984741210938e+01 3.504000091552734375e+01 3.516999816894531250e+01 3.520500183105468750e+01 3.518999862670898438e+01 3.516500091552734375e+01 3.511500167846679688e+01 3.501499938964843750e+01 3.499000167846679688e+01 3.502999877929687500e+01 3.502999877929687500e+01 3.502500152587890625e+01 3.526499938964843750e+01 3.540000152587890625e+01 3.568999862670898438e+01 3.578499984741210938e+01 3.564500045776367188e+01 3.538000106811523438e+01 3.515000152587890625e+01 3.500999832153320312e+01 3.486000061035156250e+01 3.465000152587890625e+01 3.450999832153320312e+01 3.439500045776367188e+01 3.454000091552734375e+01 3.461999893188476562e+01 3.461999893188476562e+01 3.459999847412109375e+01 3.447499847412109375e+01 3.440999984741210938e+01 3.428499984741210938e+01 3.414500045776367188e+01 3.404000091552734375e+01 3.397499847412109375e+01 3.400999832153320312e+01 3.403499984741210938e+01 3.400500106811523438e+01 3.403499984741210938e+01 3.411000061035156250e+01 3.422000122070312500e+01 3.415499877929687500e+01 3.414500045776367188e+01 3.406000137329101562e+01 3.390000152587890625e+01 3.380500030517578125e+01 3.381999969482421875e+01 3.381000137329101562e+01 3.357500076293945312e+01 3.344499969482421875e+01 3.329499816894531250e+01 3.311500167846679688e+01 3.290999984741210938e+01 3.271500015258789062e+01 3.252000045776367188e+01 3.227999877929687500e+01 3.206499862670898438e+01 3.195999908447265625e+01 3.184499931335449219e+01 3.184499931335449219e+01 3.184000015258789062e+01 3.185000038146972656e+01 3.186000061035156250e+01 3.186499977111816406e+01 3.169499969482421875e+01 3.145499992370605469e+01 3.114999961853027344e+01 3.092499923706054688e+01 3.072500038146972656e+01 3.044499969482421875e+01 3.012500000000000000e+01 2.981500053405761719e+01 2.968000030517578125e+01
2.738999938964843750e+01 2.754999923706054688e+01 2.765999984741210938e+01 2.777499961853027344e+01 2.787500000000000000e+01 2.795000076293945312e+01 2.809499931335449219e+01 2.824500083923339844e+01 2.841500091552734375e+01 2.865999984741210938e+01 2.894000053405761719e+01 2.925499916076660156e+01 2.953000068664550781e+01 2.985499954223632812e+01 3.007500076293945312e+01 3.013500022888183594e+01 3.023999977111816406e+01 3.036000061035156250e+01 3.043499946594238281e+01 3.051499938964843750e+01 3.068499946594238281e+01 3.088500022888183594e+01 3.112500000000000000e+01 3.131500053405761719e+01 3.152499961853027344e+01 3.170000076293945312e+01 3.191500091552734375e+01 3.222999954223632812e+01 3.240000152587890625e+01 3.259000015258789062e+01 3.270000076293945312e+01 3.284000015258789062e+01 3.295000076293945312e+01 3.293000030517578125e+01 3.292499923706054688e+01 3.293500137329101562e+01 3.302000045776367188e+01 3.319499969482421875e+01 3.324000167846679688e+01 3.322000122070312500e+01 3.339500045776367188e+01 3.366999816894531250e+01 3.385499954223632812e+01 3.393999862670898438e+01 3.399499893188476562e+01 3.413000106811523438e+01 3.434999847412109375e+01 3.465499877929687500e+01 3.488000106811523438e+01 3.500000000000000000e+01 3.504000091552734375e+01 3.504000091552734375e+01 3.497000122070312500e+01 3.488499832153320312e+01 3.474000167846679688e+01 3.472999954223632812e+01 3.477500152587890625e+01 3.476499938964843750e+01 3.500000000000000000e+01 3.508499908447265625e+01 3.524499893188476562e+01 3.553499984741210938e+01 3.559500122070312500e+01 3.546500015258789062e+01 3.517499923706054688e+01 3.500000000000000000e+01 3.485499954223632812e+01 3.470500183105468750e+01 3.449000167846679688e+01 3.425999832153320312e+01 3.414500045776367188e+01 3.425500106811523438e+01 3.436500167846679688e+01 3.438999938964843750e+01 3.440000152587890625e+01 3.432500076293945312e+01 3.417499923706054688e+01 3.413000106811523438e+01 3.401499938964843750e+01 3.384500122070312500e+01 3.375999832153320312e+01 3.379000091552734375e+01 3.378499984741210938e+01 3.377000045776367188e+01 3.377000045776367188e+01 3.381999969482421875e+01 3.400999832153320312e+01 3.404499816894531250e+01 3.394499969482421875e+01 3.400999832153320312e+01 3.384000015258789062e+01 3.370999908447265625e+01 3.368999862670898438e+01 3.365999984741210938e+01 3.349499893188476562e+01 3.325500106811523438e+01 3.313999938964843750e+01 3.295999908447265625e+01 3.279000091552734375e+01 3.261999893188476562e+01 3.243500137329101562e+01 3.216999816894531250e+01 3.196999931335449219e+01 3.176499938964843750e+01 3.165999984741210938e+01 3.163500022888183594e+01 3.157999992370605469e+01 3.155999946594238281e+01 3.156999969482421875e+01 3.154999923706054688e+01 3.142000007629394531e+01 3.118499946594238281e+01 3.094000053405761719e+01 3.084000015258789062e+01 3.063500022888183594e+01 3.034000015258789062e+01 3.006999969482421875e+01 2.976499938964843750e+01 2.935499954223632812e+01
2.724500083923339844e+01 2.740999984741210938e+01 2.749500083923339844e+01 2.757500076293945312e+01 2.771500015258789062e+01 2.787999916076660156e+01 2.804500007629394531e+01 2.816500091552734375e+01 2.838500022888183594e+01 2.864500045776367188e+01 2.888500022888183594e+01 2.913999938964843750e+01 2.942499923706054688e+01 2.966500091552734375e+01 2.982999992370605469e+01 2.987999916076660156e+01 3.001000022888183594e+01 3.011000061035156250e+01 3.017000007629394531e+01 3.035499954223632812e+01 3.052499961853027344e+01 3.072500038146972656e+01 3.091500091552734375e+01 3.120000076293945312e+01 3.141500091552734375e+01 3.157500076293945312e+01 3.186000061035156250e+01 3.208499908447265625e+01 3.216500091552734375e+01 3.234000015258789062e+01 3.252000045776367188e+01 3.257500076293945312e+01 3.251499938964843750e+01 3.254000091552734375e+01 3.258499908447265625e+01 3.266500091552734375e+01 3.278499984741210938e+01 3.281499862670898438e+01 3.275500106811523438e+01 3.309999847412109375e+01 3.345000076293945312e+01 3.370500183105468750e+01 3.382500076293945312e+01 3.384500122070312500e+01 3.390000152587890625e+01 3.399000167846679688e+01 3.424000167846679688e+01 3.450000000000000000e+01 3.470500183105468750e+01 3.479000091552734375e+01 3.481000137329101562e+01 3.477500152587890625e+01 3.467499923706054688e+01 3.459999847412109375e+01 3.450500106811523438e+01 3.449499893188476562e+01 3.459500122070312500e+01 3.466999816894531250e+01 3.480500030517578125e+01 3.485499954223632812e+01 3.510499954223632812e+01 3.534000015258789062e+01 3.543000030517578125e+01 3.533000183105468750e+01 3.506499862670898438e+01 3.483000183105468750e+01 3.469499969482421875e+01 3.454999923706054688e+01 3.433000183105468750e+01 3.409500122070312500e+01 3.391999816894531250e+01 3.397999954223632812e+01 3.408499908447265625e+01 3.416500091552734375e+01 3.420500183105468750e+01 3.418000030517578125e+01 3.404499816894531250e+01 3.390999984741210938e+01 3.379999923706054688e+01 3.368500137329101562e+01 3.354499816894531250e+01 3.355500030517578125e+01 3.352500152587890625e+01 3.350999832153320312e+01 3.350500106811523438e+01 3.354999923706054688e+01 3.373500061035156250e+01 3.388499832153320312e+01 3.375000000000000000e+01 3.376499938964843750e+01 3.379000091552734375e+01 3.360499954223632812e+01 3.351499938964843750e+01 3.347999954223632812e+01 3.336000061035156250e+01 3.313000106811523438e+01 3.297000122070312500e+01 3.279499816894531250e+01 3.265999984741210938e+01 3.247499847412109375e+01 3.230500030517578125e+01 3.210499954223632812e+01 3.185499954223632812e+01 3.163999938964843750e+01 3.158499908447265625e+01 3.143000030517578125e+01 3.137000083923339844e+01 3.128000068664550781e+01 3.129500007629394531e+01 3.127499961853027344e+01 3.120000076293945312e+01 3.098500061035156250e+01 3.075000000000000000e+01 3.062999916076660156e+01 3.048500061035156250e+01 3.018000030517578125e+01 2.989500045776367188e+01 2.956999969482421875e+01 2.925499916076660156e+01
2.706500053405761719e+01 2.718499946594238281e+01 2.731999969482421875e+01 2.747999954223632812e+01 2.763500022888183594e+01 2.778499984741210938e+01 2.797500038146972656e+01 2.812999916076660156e+01 2.835000038146972656e+01 2.857999992370605469e+01 2.876000022888183594e+01 2.895499992370605469e+01 2.923500061035156250e+01 2.944499969482421875e+01 2.953000068664550781e+01 2.964500045776367188e+01 2.971500015258789062e+01 2.980500030517578125e+01 3.004999923706054688e+01 3.020999908447265625e+01 3.035499954223632812e+01 3.054999923706054688e+01 3.080500030517578125e+01 3.101499938964843750e+01 3.120999908447265625e+01 3.155999946594238281e+01 3.180500030517578125e+01 3.192499923706054688e+01 3.196999931335449219e+01 3.213000106811523438e+01 3.229000091552734375e+01 3.231499862670898438e+01 3.224499893188476562e+01 3.225999832153320312e+01 3.233000183105468750e+01 3.244499969482421875e+01 3.248500061035156250e+01 3.254000091552734375e+01 3.277999877929687500e+01 3.322499847412109375e+01 3.348500061035156250e+01 3.361000061035156250e+01 3.368999862670898438e+01 3.372999954223632812e+01 3.377999877929687500e+01 3.393999862670898438e+01 3.412500000000000000e+01 3.431999969482421875e+01 3.453499984741210938e+01 3.461500167846679688e+01 3.457500076293945312e+01 3.449499893188476562e+01 3.441999816894531250e+01 3.433499908447265625e+01 3.425500106811523438e+01 3.422999954223632812e+01 3.433499908447265625e+01 3.454999923706054688e+01 3.458000183105468750e+01 3.460499954223632812e+01 3.494499969482421875e+01 3.519499969482421875e+01 3.528499984741210938e+01 3.518999862670898438e+01 3.502000045776367188e+01 3.471500015258789062e+01 3.450500106811523438e+01 3.434000015258789062e+01 3.416500091552734375e+01 3.397000122070312500e+01 3.371500015258789062e+01 3.359000015258789062e+01 3.381000137329101562e+01 3.390999984741210938e+01 3.399499893188476562e+01 3.400999832153320312e+01 3.387500000000000000e+01 3.370999908447265625e+01 3.359999847412109375e+01 3.352000045776367188e+01 3.334500122070312500e+01 3.333000183105468750e+01 3.324499893188476562e+01 3.322499847412109375e+01 3.322000122070312500e+01 3.324499893188476562e+01 3.341500091552734375e+01 3.363499832153320312e+01 3.363499832153320312e+01 3.355500030517578125e+01 3.359500122070312500e+01 3.345999908447265625e+01 3.326499938964843750e+01 3.325500106811523438e+01 3.317499923706054688e+01 3.295500183105468750e+01 3.279999923706054688e+01 3.263000106811523438e+01 3.248500061035156250e+01 3.229999923706054688e+01 3.217499923706054688e+01 3.200000000000000000e+01 3.173999977111816406e+01 3.155500030517578125e+01 3.138999938964843750e+01 3.138999938964843750e+01 3.113999938964843750e+01 3.101000022888183594e+01 3.095499992370605469e+01 3.095999908447265625e+01 3.093000030517578125e+01 3.079500007629394531e+01 3.061000061035156250e+01 3.034000015258789062e+01 3.027499961853027344e+01 3.010499954223632812e+01 2.980500030517578125e+01 2.944000053405761719e+01 2.911499977111816406e+01
2.696999931335449219e+01 2.710000038146972656e+01 2.722999954223632812e+01 2.737500000000000000e+01 2.747500038146972656e+01 2.763999938964843750e+01 2.786000061035156250e+01 2.804000091552734375e+01 2.821999931335449219e+01 2.845499992370605469e+01 2.859499931335449219e+01 2.880500030517578125e+01 2.906999969482421875e+01 2.918499946594238281e+01 2.929000091552734375e+01 2.941500091552734375e+01 2.952499961853027344e+01 2.970499992370605469e+01 2.992000007629394531e+01 3.006999969482421875e+01 3.017499923706054688e+01 3.038999938964843750e+01 3.056500053405761719e+01 3.082999992370605469e+01 3.118000030517578125e+01 3.145999908447265625e+01 3.166500091552734375e+01 3.176000022888183594e+01 3.183499908447265625e+01 3.190500068664550781e+01 3.204499816894531250e+01 3.209999847412109375e+01 3.204499816894531250e+01 3.204000091552734375e+01 3.212500000000000000e+01 3.218500137329101562e+01 3.227500152587890625e+01 3.254499816894531250e+01 3.289500045776367188e+01 3.320999908447265625e+01 3.322499847412109375e+01 3.336999893188476562e+01 3.354499816894531250e+01 3.356999969482421875e+01 3.363000106811523438e+01 3.377500152587890625e+01 3.391999816894531250e+01 3.409500122070312500e+01 3.431499862670898438e+01 3.436500167846679688e+01 3.432500076293945312e+01 3.421500015258789062e+01 3.414500045776367188e+01 3.405500030517578125e+01 3.398500061035156250e+01 3.394499969482421875e+01 3.420000076293945312e+01 3.432500076293945312e+01 3.431499862670898438e+01 3.436500167846679688e+01 3.474000167846679688e+01 3.504499816894531250e+01 3.515000152587890625e+01 3.509999847412109375e+01 3.494499969482421875e+01 3.459500122070312500e+01 3.431000137329101562e+01 3.402000045776367188e+01 3.393500137329101562e+01 3.374000167846679688e+01 3.351499938964843750e+01 3.334500122070312500e+01 3.347499847412109375e+01 3.363000106811523438e+01 3.375500106811523438e+01 3.381000137329101562e+01 3.372499847412109375e+01 3.359000015258789062e+01 3.340000152587890625e+01 3.329999923706054688e+01 3.318999862670898438e+01 3.304999923706054688e+01 3.298500061035156250e+01 3.298500061035156250e+01 3.295999908447265625e+01 3.297000122070312500e+01 3.310499954223632812e+01 3.333499908447265625e+01 3.340000152587890625e+01 3.333499908447265625e+01 3.327999877929687500e+01 3.325500106811523438e+01 3.313000106811523438e+01 3.298500061035156250e+01 3.298500061035156250e+01 3.277500152587890625e+01 3.263000106811523438e+01 3.244499969482421875e+01 3.229000091552734375e+01 3.216999816894531250e+01 3.200000000000000000e+01 3.180500030517578125e+01 3.163500022888183594e+01 3.145000076293945312e+01 3.126000022888183594e+01 3.120499992370605469e+01 3.108499908447265625e+01 3.084499931335449219e+01 3.075000000000000000e+01 3.070000076293945312e+01 3.068000030517578125e+01 3.053499984741210938e+01 3.032999992370605469e+01 3.007500076293945312e+01 3.000499916076660156e+01 2.995999908447265625e+01 2.980500030517578125e+01 2.945499992370605469e+01 2.915500068664550781e+01
2.693000030517578125e+01 2.703000068664550781e+01 2.708499908447265625e+01 2.715500068664550781e+01 2.727499961853027344e+01 2.746999931335449219e+01 2.764999961853027344e+01 2.783499908447265625e+01 2.809499931335449219e+01 2.827000045776367188e+01 2.844499969482421875e+01 2.868000030517578125e+01 2.882999992370605469e+01 2.901499938964843750e+01 2.913999938964843750e+01 2.926499938964843750e+01 2.943499946594238281e+01 2.960000038146972656e+01 2.975000000000000000e+01 2.981999969482421875e+01 3.004000091552734375e+01 3.019499969482421875e+01 3.047500038146972656e+01 3.079999923706054688e+01 3.112500000000000000e+01 3.136499977111816406e+01 3.152499961853027344e+01 3.160000038146972656e+01 3.164999961853027344e+01 3.168499946594238281e+01 3.183499908447265625e+01 3.183499908447265625e+01 3.180500030517578125e+01 3.187999916076660156e+01 3.182500076293945312e+01 3.198500061035156250e+01 3.228499984741210938e+01 3.256999969482421875e+01 3.285499954223632812e+01 3.293500137329101562e+01 3.297499847412109375e+01 3.321500015258789062e+01 3.333000183105468750e+01 3.345500183105468750e+01 3.350500106811523438e+01 3.359000015258789062e+01 3.368999862670898438e+01 3.386500167846679688e+01 3.404499816894531250e+01 3.408499908447265625e+01 3.406000137329101562e+01 3.397499847412109375e+01 3.386500167846679688e+01 3.377500152587890625e+01 3.371500015258789062e+01 3.372499847412109375e+01 3.400999832153320312e+01 3.406499862670898438e+01 3.406000137329101562e+01 3.414500045776367188e+01 3.447999954223632812e+01 3.486000061035156250e+01 3.498500061035156250e+01 3.499000167846679688e+01 3.475000000000000000e+01 3.443999862670898438e+01 3.415499877929687500e+01 3.380500030517578125e+01 3.361500167846679688e+01 3.347499847412109375e+01 3.333000183105468750e+01 3.320000076293945312e+01 3.319499969482421875e+01 3.334000015258789062e+01 3.347999954223632812e+01 3.358000183105468750e+01 3.354999923706054688e+01 3.342499923706054688e+01 3.327500152587890625e+01 3.306999969482421875e+01 3.291500091552734375e+01 3.279499816894531250e+01 3.280500030517578125e+01 3.274000167846679688e+01 3.267499923706054688e+01 3.270500183105468750e+01 3.279000091552734375e+01 3.303499984741210938e+01 3.313999938964843750e+01 3.316999816894531250e+01 3.300500106811523438e+01 3.297999954223632812e+01 3.295999908447265625e+01 3.277999877929687500e+01 3.274499893188476562e+01 3.263499832153320312e+01 3.247999954223632812e+01 3.230500030517578125e+01 3.211999893188476562e+01 3.198999977111816406e+01 3.186000061035156250e+01 3.165500068664550781e+01 3.146999931335449219e+01 3.130500030517578125e+01 3.113500022888183594e+01 3.097500038146972656e+01 3.098500061035156250e+01 3.078000068664550781e+01 3.060000038146972656e+01 3.046500015258789062e+01 3.042000007629394531e+01 3.032500076293945312e+01 3.010000038146972656e+01 2.990999984741210938e+01 2.977499961853027344e+01 2.970999908447265625e+01 2.956999969482421875e+01 2.930500030517578125e+01 2.905999946594238281e+01
2.676000022888183594e+01 2.678000068664550781e+01 2.681500053405761719e+01 2.686499977111816406e+01 2.705500030517578125e+01 2.721999931335449219e+01 2.739500045776367188e+01 2.769000053405761719e+01 2.789500045776367188e+01 2.809000015258789062e+01 2.834499931335449219e+01 2.849500083923339844e+01 2.868000030517578125e+01 2.884499931335449219e+01 2.904999923706054688e+01 2.920999908447265625e+01 2.933499908447265625e+01 2.947999954223632812e+01 2.956999969482421875e+01 2.972999954223632812e+01 2.988999938964843750e+01 3.013999938964843750e+01 3.037999916076660156e+01 3.062999916076660156e+01 3.091500091552734375e+01 3.119000053405761719e+01 3.132500076293945312e+01 3.134000015258789062e+01 3.143000030517578125e+01 3.148500061035156250e+01 3.162000083923339844e+01 3.165500068664550781e+01 3.169499969482421875e+01 3.166500091552734375e+01 3.168499946594238281e+01 3.197999954223632812e+01 3.229000091552734375e+01 3.250999832153320312e+01 3.262500000000000000e+01 3.270999908447265625e+01 3.286500167846679688e+01 3.299000167846679688e+01 3.311999893188476562e+01 3.329499816894531250e+01 3.333499908447265625e+01 3.338999938964843750e+01 3.343500137329101562e+01 3.363499832153320312e+01 3.375500106811523438e+01 3.377000045776367188e+01 3.375500106811523438e+01 3.368999862670898438e+01 3.361999893188476562e+01 3.358000183105468750e+01 3.352000045776367188e+01 3.349000167846679688e+01 3.375500106811523438e+01 3.379499816894531250e+01 3.379499816894531250e+01 3.395000076293945312e+01 3.425000000000000000e+01 3.461500167846679688e+01 3.473500061035156250e+01 3.468999862670898438e+01 3.446500015258789062e+01 3.422999954223632812e+01 3.400999832153320312e+01 3.363499832153320312e+01 3.338999938964843750e+01 3.323500061035156250e+01 3.313000106811523438e+01 3.300999832153320312e+01 3.295999908447265625e+01 3.311500167846679688e+01 3.322499847412109375e+01 3.327000045776367188e+01 3.327500152587890625e+01 3.322499847412109375e+01 3.313000106811523438e+01 3.295500183105468750e+01 3.259500122070312500e+01 3.249499893188476562e+01 3.250500106811523438e+01 3.250000000000000000e+01 3.245500183105468750e+01 3.247499847412109375e+01 3.251499938964843750e+01 3.268500137329101562e+01 3.283000183105468750e+01 3.290999984741210938e+01 3.291500091552734375e+01 3.276499938964843750e+01 3.274000167846679688e+01 3.263999938964843750e+01 3.254000091552734375e+01 3.249499893188476562e+01 3.236500167846679688e+01 3.218999862670898438e+01 3.198999977111816406e+01 3.177499961853027344e+01 3.167000007629394531e+01 3.154000091552734375e+01 3.132999992370605469e+01 3.114999961853027344e+01 3.101000022888183594e+01 3.082999992370605469e+01 3.076499938964843750e+01 3.065500068664550781e+01 3.051000022888183594e+01 3.034000015258789062e+01 3.004500007629394531e+01 2.997999954223632812e+01 2.990500068664550781e+01 2.973500061035156250e+01 2.961499977111816406e+01 2.947999954223632812e+01 2.927499961853027344e+01 2.904000091552734375e+01 2.886000061035156250e+01
2.656500053405761719e+01 2.654999923706054688e+01 2.655500030517578125e+01 2.663999938964843750e+01 2.677000045776367188e+01 2.698999977111816406e+01 2.727000045776367188e+01 2.745499992370605469e+01 2.767000007629394531e+01 2.800499916076660156e+01 2.816500091552734375e+01 2.837500000000000000e+01 2.856500053405761719e+01 2.875499916076660156e+01 2.890999984741210938e+01 2.906500053405761719e+01 2.920000076293945312e+01 2.931999969482421875e+01 2.947999954223632812e+01 2.960499954223632812e+01 2.981999969482421875e+01 3.002499961853027344e+01 3.018499946594238281e+01 3.046999931335449219e+01 3.073999977111816406e+01 3.095499992370605469e+01 3.103000068664550781e+01 3.109499931335449219e+01 3.120499992370605469e+01 3.131500053405761719e+01 3.144499969482421875e+01 3.150499916076660156e+01 3.152000045776367188e+01 3.140500068664550781e+01 3.170000076293945312e+01 3.198999977111816406e+01 3.220500183105468750e+01 3.231499862670898438e+01 3.237500000000000000e+01 3.258499908447265625e+01 3.269499969482421875e+01 3.276499938964843750e+01 3.293999862670898438e+01 3.307500076293945312e+01 3.308000183105468750e+01 3.313000106811523438e+01 3.320500183105468750e+01 3.341999816894531250e+01 3.350500106811523438e+01 3.351499938964843750e+01 3.350000000000000000e+01 3.345500183105468750e+01 3.341500091552734375e+01 3.340000152587890625e+01 3.333000183105468750e+01 3.329000091552734375e+01 3.348500061035156250e+01 3.358499908447265625e+01 3.359500122070312500e+01 3.375999832153320312e+01 3.402000045776367188e+01 3.441999816894531250e+01 3.454999923706054688e+01 3.447499847412109375e+01 3.424000167846679688e+01 3.402000045776367188e+01 3.377000045776367188e+01 3.350000000000000000e+01 3.327000045776367188e+01 3.309500122070312500e+01 3.292499923706054688e+01 3.283000183105468750e+01 3.277999877929687500e+01 3.291999816894531250e+01 3.302500152587890625e+01 3.304999923706054688e+01 3.302500152587890625e+01 3.301499938964843750e+01 3.296500015258789062e+01 3.274499893188476562e+01 3.238499832153320312e+01 3.217499923706054688e+01 3.223500061035156250e+01 3.227500152587890625e+01 3.224499893188476562e+01 3.225500106811523438e+01 3.227000045776367188e+01 3.238999938964843750e+01 3.248500061035156250e+01 3.258000183105468750e+01 3.267499923706054688e+01 3.261999893188476562e+01 3.256499862670898438e+01 3.250500106811523438e+01 3.235499954223632812e+01 3.234500122070312500e+01 3.225000000000000000e+01 3.209500122070312500e+01 3.186000061035156250e+01 3.163999938964843750e+01 3.145999908447265625e+01 3.131999969482421875e+01 3.120999908447265625e+01 3.104000091552734375e+01 3.081500053405761719e+01 3.069000053405761719e+01 3.055500030517578125e+01 3.050000000000000000e+01 3.032500076293945312e+01 3.020000076293945312e+01 2.993000030517578125e+01 2.973999977111816406e+01 2.968000030517578125e+01 2.956500053405761719e+01 2.935000038146972656e+01 2.929500007629394531e+01 2.919000053405761719e+01 2.901499938964843750e+01 2.877499961853027344e+01
2.634499931335449219e+01 2.629000091552734375e+01 2.635499954223632812e+01 2.643499946594238281e+01 2.665999984741210938e+01 2.690500068664550781e+01 2.711000061035156250e+01 2.729000091552734375e+01 2.749500083923339844e+01 2.779000091552734375e+01 2.804500007629394531e+01 2.825499916076660156e+01 2.844000053405761719e+01 2.854999923706054688e+01 2.871500015258789062e+01 2.892499923706054688e+01 2.904000091552734375e+01 2.920999908447265625e+01 2.935000038146972656e+01 2.950499916076660156e+01 2.965999984741210938e+01 2.986000061035156250e+01 3.007500076293945312e+01 3.027000045776367188e+01 3.043000030517578125e+01 3.064500045776367188e+01 3.075499916076660156e+01 3.089500045776367188e+01 3.107999992370605469e+01 3.123500061035156250e+01 3.128000068664550781e+01 3.131999969482421875e+01 3.129000091552734375e+01 3.138500022888183594e+01 3.170000076293945312e+01 3.186000061035156250e+01 3.195999908447265625e+01 3.207500076293945312e+01 3.225000000000000000e+01 3.239500045776367188e+01 3.248500061035156250e+01 3.256499862670898438e+01 3.274000167846679688e+01 3.279499816894531250e+01 3.278499984741210938e+01 3.284999847412109375e+01 3.300999832153320312e+01 3.320500183105468750e+01 3.325999832153320312e+01 3.325999832153320312e+01 3.325000000000000000e+01 3.322499847412109375e+01 3.320999908447265625e+01 3.320500183105468750e+01 3.313499832153320312e+01 3.311000061035156250e+01 3.325999832153320312e+01 3.334999847412109375e+01 3.340499877929687500e+01 3.359000015258789062e+01 3.381000137329101562e+01 3.420000076293945312e+01 3.440000152587890625e+01 3.434000015258789062e+01 3.409999847412109375e+01 3.379499816894531250e+01 3.358000183105468750e+01 3.336999893188476562e+01 3.318999862670898438e+01 3.299000167846679688e+01 3.281999969482421875e+01 3.268999862670898438e+01 3.265499877929687500e+01 3.277000045776367188e+01 3.283000183105468750e+01 3.284500122070312500e+01 3.281000137329101562e+01 3.279000091552734375e+01 3.275000000000000000e+01 3.252999877929687500e+01 3.224499893188476562e+01 3.202999877929687500e+01 3.195000076293945312e+01 3.201499938964843750e+01 3.205500030517578125e+01 3.202000045776367188e+01 3.204499816894531250e+01 3.213999938964843750e+01 3.222000122070312500e+01 3.226499938964843750e+01 3.236500167846679688e+01 3.245999908447265625e+01 3.236000061035156250e+01 3.235499954223632812e+01 3.223500061035156250e+01 3.212500000000000000e+01 3.209999847412109375e+01 3.202500152587890625e+01 3.180999946594238281e+01 3.156999969482421875e+01 3.137999916076660156e+01 3.119000053405761719e+01 3.104000091552734375e+01 3.087999916076660156e+01 3.064999961853027344e+01 3.053499984741210938e+01 3.038999938964843750e+01 3.032500076293945312e+01 3.022999954223632812e+01 2.998999977111816406e+01 2.979500007629394531e+01 2.962999916076660156e+01 2.949500083923339844e+01 2.942000007629394531e+01 2.913999938964843750e+01 2.897999954223632812e+01 2.897999954223632812e+01 2.895000076293945312e+01 2.879000091552734375e+01
2.612500000000000000e+01 2.614500045776367188e+01 2.626499938964843750e+01 2.640500068664550781e+01 2.659000015258789062e+01 2.675499916076660156e+01 2.700000000000000000e+01 2.716500091552734375e+01 2.733499908447265625e+01 2.761499977111816406e+01 2.787500000000000000e+01 2.808499908447265625e+01 2.823999977111816406e+01 2.843000030517578125e+01 2.860000038146972656e+01 2.872999954223632812e+01 2.887500000000000000e+01 2.908499908447265625e+01 2.915500068664550781e+01 2.933499908447265625e+01 2.953499984741210938e+01 2.970999908447265625e+01 2.988999938964843750e+01 3.004500007629394531e+01 3.021500015258789062e+01 3.045000076293945312e+01 3.056500053405761719e+01 3.078000068664550781e+01 3.102000045776367188e+01 3.108499908447265625e+01 3.111499977111816406e+01 3.112000083923339844e+01 3.112500000000000000e+01 3.143000030517578125e+01 3.156999969482421875e+01 3.162999916076660156e+01 3.173500061035156250e+01 3.191500091552734375e+01 3.209000015258789062e+01 3.220500183105468750e+01 3.226499938964843750e+01 3.238000106811523438e+01 3.250500106811523438e+01 3.254999923706054688e+01 3.259000015258789062e+01 3.266500091552734375e+01 3.284500122070312500e+01 3.299000167846679688e+01 3.300999832153320312e+01 3.302500152587890625e+01 3.302999877929687500e+01 3.301499938964843750e+01 3.301499938964843750e+01 3.299000167846679688e+01 3.284500122070312500e+01 3.286500167846679688e+01 3.306000137329101562e+01 3.317499923706054688e+01 3.327999877929687500e+01 3.341999816894531250e+01 3.366500091552734375e+01 3.400000000000000000e+01 3.429000091552734375e+01 3.421500015258789062e+01 3.402000045776367188e+01 3.368000030517578125e+01 3.344499969482421875e+01 3.327000045776367188e+01 3.306999969482421875e+01 3.288999938964843750e+01 3.275500106811523438e+01 3.263000106811523438e+01 3.256000137329101562e+01 3.261999893188476562e+01 3.265499877929687500e+01 3.265499877929687500e+01 3.261500167846679688e+01 3.256000137329101562e+01 3.252000045776367188e+01 3.231000137329101562e+01 3.206499862670898438e+01 3.182999992370605469e+01 3.162500000000000000e+01 3.176499938964843750e+01 3.184499931335449219e+01 3.175499916076660156e+01 3.178499984741210938e+01 3.187999916076660156e+01 3.193000030517578125e+01 3.195000076293945312e+01 3.204999923706054688e+01 3.222499847412109375e+01 3.225500106811523438e+01 3.218500137329101562e+01 3.222000122070312500e+01 3.194000053405761719e+01 3.188999938964843750e+01 3.187000083923339844e+01 3.176499938964843750e+01 3.151000022888183594e+01 3.130999946594238281e+01 3.113999938964843750e+01 3.097500038146972656e+01 3.079000091552734375e+01 3.053499984741210938e+01 3.033499908447265625e+01 3.025499916076660156e+01 3.015999984741210938e+01 3.006999969482421875e+01 2.992499923706054688e+01 2.972500038146972656e+01 2.955999946594238281e+01 2.938500022888183594e+01 2.922999954223632812e+01 2.902000045776367188e+01 2.880500030517578125e+01 2.876000022888183594e+01 2.877000045776367188e+01 2.871500015258789062e+01
2.602000045776367188e+01 2.607999992370605469e+01 2.617499923706054688e+01 2.630999946594238281e+01 2.645999908447265625e+01 2.665999984741210938e+01 2.683499908447265625e+01 2.702499961853027344e+01 2.726499938964843750e+01 2.747500038146972656e+01 2.762000083923339844e+01 2.795999908447265625e+01 2.815999984741210938e+01 2.829000091552734375e+01 2.840999984741210938e+01 2.852000045776367188e+01 2.876000022888183594e+01 2.891500091552734375e+01 2.901499938964843750e+01 2.917000007629394531e+01 2.934000015258789062e+01 2.952000045776367188e+01 2.970499992370605469e+01 2.992000007629394531e+01 3.010499954223632812e+01 3.025499916076660156e+01 3.040500068664550781e+01 3.066500091552734375e+01 3.080500030517578125e+01 3.088500022888183594e+01 3.089999961853027344e+01 3.080500030517578125e+01 3.105999946594238281e+01 3.125499916076660156e+01 3.132999992370605469e+01 3.143499946594238281e+01 3.162000083923339844e+01 3.174500083923339844e+01 3.185000038146972656e+01 3.197999954223632812e+01 3.202000045776367188e+01 3.218500137329101562e+01 3.227999877929687500e+01 3.228499984741210938e+01 3.236500167846679688e+01 3.245999908447265625e+01 3.264500045776367188e+01 3.270500183105468750e+01 3.272499847412109375e+01 3.273500061035156250e+01 3.273500061035156250e+01 3.272000122070312500e+01 3.268999862670898438e+01 3.267499923706054688e+01 3.251499938964843750e+01 3.259999847412109375e+01 3.285499954223632812e+01 3.299499893188476562e+01 3.312500000000000000e+01 3.324000167846679688e+01 3.352500152587890625e+01 3.384500122070312500e+01 3.417499923706054688e+01 3.411500167846679688e+01 3.393500137329101562e+01 3.362500000000000000e+01 3.338999938964843750e+01 3.321500015258789062e+01 3.303499984741210938e+01 3.285499954223632812e+01 3.272000122070312500e+01 3.259999847412109375e+01 3.241999816894531250e+01 3.245500183105468750e+01 3.247999954223632812e+01 3.245000076293945312e+01 3.238000106811523438e+01 3.234999847412109375e+01 3.232500076293945312e+01 3.220000076293945312e+01 3.188999938964843750e+01 3.162000083923339844e+01 3.136000061035156250e+01 3.150499916076660156e+01 3.161499977111816406e+01 3.154000091552734375e+01 3.154999923706054688e+01 3.160000038146972656e+01 3.162999916076660156e+01 3.165500068664550781e+01 3.174500083923339844e+01 3.201499938964843750e+01 3.215499877929687500e+01 3.202500152587890625e+01 3.208000183105468750e+01 3.189999961853027344e+01 3.167499923706054688e+01 3.157999992370605469e+01 3.153499984741210938e+01 3.137500000000000000e+01 3.124500083923339844e+01 3.108499908447265625e+01 3.095499992370605469e+01 3.076499938964843750e+01 3.047999954223632812e+01 3.024500083923339844e+01 3.002000045776367188e+01 3.004999923706054688e+01 2.991500091552734375e+01 2.980500030517578125e+01 2.967499923706054688e+01 2.954999923706054688e+01 2.940500068664550781e+01 2.916500091552734375e+01 2.893499946594238281e+01 2.874500083923339844e+01 2.859499931335449219e+01 2.855999946594238281e+01 2.853499984741210938e+01
2.588999938964843750e+01 2.594499969482421875e+01 2.605999946594238281e+01 2.618499946594238281e+01 2.636499977111816406e+01 2.657999992370605469e+01 2.677499961853027344e+01 2.702000045776367188e+01 2.717000007629394531e+01 2.732999992370605469e+01 2.761499977111816406e+01 2.788500022888183594e+01 2.801499938964843750e+01 2.810499954223632812e+01 2.818000030517578125e+01 2.842000007629394531e+01 2.856500053405761719e+01 2.862500000000000000e+01 2.879000091552734375e+01 2.898999977111816406e+01 2.921999931335449219e+01 2.944499969482421875e+01 2.964500045776367188e+01 2.982999992370605469e+01 3.001000022888183594e+01 3.011499977111816406e+01 3.033499908447265625e+01 3.054000091552734375e+01 3.061000061035156250e+01 3.062999916076660156e+01 3.060499954223632812e+01 3.064500045776367188e+01 3.081500053405761719e+01 3.093000030517578125e+01 3.112000083923339844e+01 3.132999992370605469e+01 3.148500061035156250e+01 3.159000015258789062e+01 3.164999961853027344e+01 3.169499969482421875e+01 3.179999923706054688e+01 3.195499992370605469e+01 3.202999877929687500e+01 3.202999877929687500e+01 3.213499832153320312e+01 3.226499938964843750e+01 3.241999816894531250e+01 3.247000122070312500e+01 3.247999954223632812e+01 3.248500061035156250e+01 3.247999954223632812e+01 3.245999908447265625e+01 3.238999938964843750e+01 3.241500091552734375e+01 3.225000000000000000e+01 3.242499923706054688e+01 3.263499832153320312e+01 3.270000076293945312e+01 3.286999893188476562e+01 3.308000183105468750e+01 3.337500000000000000e+01 3.370000076293945312e+01 3.396500015258789062e+01 3.395999908447265625e+01 3.382500076293945312e+01 3.356999969482421875e+01 3.337500000000000000e+01 3.321500015258789062e+01 3.305500030517578125e+01 3.288000106811523438e+01 3.273500061035156250e+01 3.261500167846679688e+01 3.243500137329101562e+01 3.234000015258789062e+01 3.232500076293945312e+01 3.229499816894531250e+01 3.222999954223632812e+01 3.216999816894531250e+01 3.216500091552734375e+01 3.206999969482421875e+01 3.182500076293945312e+01 3.151499938964843750e+01 3.119499969482421875e+01 3.125499916076660156e+01 3.137999916076660156e+01 3.133499908447265625e+01 3.128499984741210938e+01 3.134499931335449219e+01 3.139500045776367188e+01 3.141500091552734375e+01 3.146500015258789062e+01 3.171500015258789062e+01 3.200000000000000000e+01 3.197500038146972656e+01 3.188500022888183594e+01 3.185000038146972656e+01 3.162999916076660156e+01 3.145000076293945312e+01 3.130999946594238281e+01 3.123500061035156250e+01 3.110000038146972656e+01 3.094499969482421875e+01 3.082999992370605469e+01 3.067000007629394531e+01 3.041500091552734375e+01 3.015500068664550781e+01 2.995999908447265625e+01 2.984000015258789062e+01 2.982999992370605469e+01 2.964500045776367188e+01 2.954000091552734375e+01 2.943000030517578125e+01 2.932999992370605469e+01 2.921500015258789062e+01 2.896999931335449219e+01 2.876000022888183594e+01 2.860499954223632812e+01 2.847500038146972656e+01 2.836499977111816406e+01
2.575499916076660156e+01 2.580999946594238281e+01 2.596500015258789062e+01 2.615500068664550781e+01 2.633499908447265625e+01 2.652000045776367188e+01 2.669499969482421875e+01 2.686499977111816406e+01 2.700000000000000000e+01 2.728000068664550781e+01 2.752499961853027344e+01 2.768499946594238281e+01 2.776499938964843750e+01 2.779999923706054688e+01 2.801000022888183594e+01 2.828000068664550781e+01 2.837999916076660156e+01 2.835000038146972656e+01 2.852000045776367188e+01 2.882500076293945312e+01 2.910499954223632812e+01 2.935000038146972656e+01 2.954999923706054688e+01 2.967499923706054688e+01 2.976000022888183594e+01 2.997500038146972656e+01 3.015500068664550781e+01 3.027499961853027344e+01 3.033499908447265625e+01 3.035000038146972656e+01 3.034499931335449219e+01 3.043000030517578125e+01 3.057500076293945312e+01 3.076000022888183594e+01 3.101000022888183594e+01 3.119499969482421875e+01 3.132500076293945312e+01 3.139500045776367188e+01 3.143499946594238281e+01 3.142499923706054688e+01 3.157500076293945312e+01 3.169000053405761719e+01 3.174500083923339844e+01 3.173500061035156250e+01 3.186000061035156250e+01 3.204000091552734375e+01 3.218999862670898438e+01 3.223500061035156250e+01 3.225500106811523438e+01 3.225999832153320312e+01 3.225000000000000000e+01 3.223500061035156250e+01 3.218999862670898438e+01 3.217499923706054688e+01 3.202000045776367188e+01 3.225999832153320312e+01 3.238999938964843750e+01 3.246500015258789062e+01 3.259999847412109375e+01 3.291500091552734375e+01 3.325999832153320312e+01 3.353499984741210938e+01 3.381499862670898438e+01 3.379000091552734375e+01 3.368999862670898438e+01 3.350999832153320312e+01 3.334999847412109375e+01 3.321500015258789062e+01 3.306499862670898438e+01 3.290999984741210938e+01 3.275999832153320312e+01 3.261999893188476562e+01 3.245000076293945312e+01 3.226499938964843750e+01 3.218500137329101562e+01 3.218500137329101562e+01 3.210499954223632812e+01 3.198999977111816406e+01 3.196999931335449219e+01 3.189500045776367188e+01 3.180999946594238281e+01 3.145499992370605469e+01 3.116500091552734375e+01 3.103000068664550781e+01 3.112000083923339844e+01 3.110000038146972656e+01 3.098500061035156250e+01 3.106500053405761719e+01 3.112000083923339844e+01 3.112500000000000000e+01 3.117000007629394531e+01 3.144000053405761719e+01 3.170000076293945312e+01 3.182999992370605469e+01 3.173500061035156250e+01 3.167499923706054688e+01 3.157999992370605469e+01 3.139500045776367188e+01 3.123500061035156250e+01 3.103000068664550781e+01 3.095999908447265625e+01 3.084000015258789062e+01 3.071999931335449219e+01 3.060499954223632812e+01 3.041500091552734375e+01 3.021999931335449219e+01 3.002499961853027344e+01 2.977499961853027344e+01 2.960499954223632812e+01 2.951499938964843750e+01 2.933499908447265625e+01 2.924500083923339844e+01 2.920499992370605469e+01 2.914999961853027344e+01 2.902499961853027344e+01 2.875499916076660156e+01 2.859000015258789062e+01 2.843499946594238281e+01 2.832500076293945312e+01
2.569000053405761719e+01 2.577000045776367188e+01 2.595999908447265625e+01 2.610000038146972656e+01 2.625499916076660156e+01 2.642000007629394531e+01 2.654999923706054688e+01 2.667000007629394531e+01 2.690500068664550781e+01 2.715999984741210938e+01 2.732999992370605469e+01 2.745999908447265625e+01 2.751499938964843750e+01 2.759000015258789062e+01 2.789999961853027344e+01 2.804999923706054688e+01 2.806500053405761719e+01 2.808499908447265625e+01 2.829999923706054688e+01 2.860499954223632812e+01 2.897999954223632812e+01 2.924500083923339844e+01 2.942000007629394531e+01 2.946500015258789062e+01 2.950499916076660156e+01 2.967499923706054688e+01 2.983499908447265625e+01 2.992000007629394531e+01 3.000499916076660156e+01 3.010499954223632812e+01 3.013500022888183594e+01 3.021500015258789062e+01 3.043000030517578125e+01 3.064500045776367188e+01 3.081999969482421875e+01 3.097500038146972656e+01 3.107999992370605469e+01 3.111499977111816406e+01 3.120499992370605469e+01 3.120999908447265625e+01 3.131999969482421875e+01 3.138999938964843750e+01 3.144000053405761719e+01 3.144499969482421875e+01 3.162500000000000000e+01 3.180500030517578125e+01 3.190999984741210938e+01 3.200000000000000000e+01 3.204999923706054688e+01 3.206000137329101562e+01 3.206000137329101562e+01 3.204499816894531250e+01 3.198999977111816406e+01 3.199500083923339844e+01 3.176499938964843750e+01 3.209500122070312500e+01 3.220500183105468750e+01 3.225999832153320312e+01 3.243999862670898438e+01 3.277000045776367188e+01 3.311500167846679688e+01 3.340000152587890625e+01 3.363499832153320312e+01 3.365000152587890625e+01 3.355500030517578125e+01 3.340499877929687500e+01 3.328499984741210938e+01 3.318000030517578125e+01 3.306000137329101562e+01 3.290999984741210938e+01 3.273500061035156250e+01 3.258000183105468750e+01 3.242499923706054688e+01 3.224499893188476562e+01 3.202500152587890625e+01 3.202999877929687500e+01 3.200000000000000000e+01 3.187999916076660156e+01 3.180500030517578125e+01 3.174500083923339844e+01 3.167000007629394531e+01 3.144499969482421875e+01 3.114500045776367188e+01 3.079000091552734375e+01 3.087500000000000000e+01 3.085000038146972656e+01 3.075000000000000000e+01 3.077000045776367188e+01 3.085000038146972656e+01 3.084000015258789062e+01 3.088999938964843750e+01 3.112999916076660156e+01 3.141500091552734375e+01 3.159000015258789062e+01 3.163500022888183594e+01 3.150499916076660156e+01 3.142000007629394531e+01 3.131500053405761719e+01 3.114500045776367188e+01 3.100499916076660156e+01 3.084499931335449219e+01 3.072999954223632812e+01 3.064500045776367188e+01 3.051499938964843750e+01 3.035499954223632812e+01 3.018000030517578125e+01 3.002000045776367188e+01 2.975499916076660156e+01 2.954000091552734375e+01 2.933499908447265625e+01 2.923999977111816406e+01 2.906500053405761719e+01 2.896500015258789062e+01 2.894499969482421875e+01 2.890500068664550781e+01 2.872500038146972656e+01 2.856999969482421875e+01 2.842499923706054688e+01 2.828499984741210938e+01
2.564999961853027344e+01 2.576499938964843750e+01 2.589999961853027344e+01 2.605500030517578125e+01 2.619000053405761719e+01 2.627499961853027344e+01 2.635000038146972656e+01 2.656999969482421875e+01 2.679000091552734375e+01 2.702499961853027344e+01 2.712999916076660156e+01 2.723500061035156250e+01 2.726000022888183594e+01 2.749500083923339844e+01 2.767499923706054688e+01 2.772999954223632812e+01 2.773500061035156250e+01 2.788500022888183594e+01 2.820000076293945312e+01 2.856500053405761719e+01 2.889999961853027344e+01 2.912999916076660156e+01 2.921999931335449219e+01 2.925000000000000000e+01 2.929000091552734375e+01 2.936000061035156250e+01 2.947500038146972656e+01 2.961499977111816406e+01 2.969499969482421875e+01 2.985000038146972656e+01 2.993000030517578125e+01 3.011499977111816406e+01 3.032500076293945312e+01 3.048500061035156250e+01 3.062999916076660156e+01 3.071999931335449219e+01 3.079500007629394531e+01 3.085499954223632812e+01 3.095499992370605469e+01 3.095999908447265625e+01 3.109499931335449219e+01 3.118000030517578125e+01 3.119000053405761719e+01 3.121500015258789062e+01 3.138500022888183594e+01 3.154500007629394531e+01 3.160000038146972656e+01 3.170499992370605469e+01 3.177499961853027344e+01 3.181999969482421875e+01 3.182999992370605469e+01 3.181500053405761719e+01 3.176000022888183594e+01 3.170999908447265625e+01 3.167000007629394531e+01 3.192499923706054688e+01 3.197999954223632812e+01 3.204999923706054688e+01 3.231499862670898438e+01 3.262500000000000000e+01 3.293000030517578125e+01 3.325000000000000000e+01 3.345999908447265625e+01 3.347000122070312500e+01 3.338499832153320312e+01 3.328499984741210938e+01 3.320000076293945312e+01 3.309999847412109375e+01 3.300500106811523438e+01 3.281999969482421875e+01 3.261500167846679688e+01 3.246500015258789062e+01 3.231499862670898438e+01 3.213999938964843750e+01 3.195000076293945312e+01 3.178000068664550781e+01 3.185499954223632812e+01 3.179000091552734375e+01 3.166500091552734375e+01 3.160499954223632812e+01 3.150499916076660156e+01 3.143000030517578125e+01 3.122999954223632812e+01 3.083499908447265625e+01 3.055500030517578125e+01 3.059499931335449219e+01 3.055500030517578125e+01 3.050000000000000000e+01 3.060499954223632812e+01 3.062000083923339844e+01 3.063500022888183594e+01 3.084000015258789062e+01 3.107500076293945312e+01 3.128000068664550781e+01 3.141500091552734375e+01 3.140500068664550781e+01 3.120999908447265625e+01 3.118000030517578125e+01 3.103499984741210938e+01 3.086499977111816406e+01 3.072999954223632812e+01 3.063500022888183594e+01 3.047999954223632812e+01 3.037500000000000000e+01 3.025499916076660156e+01 3.009000015258789062e+01 2.990999984741210938e+01 2.970499992370605469e+01 2.950000000000000000e+01 2.925000000000000000e+01 2.912000083923339844e+01 2.898500061035156250e+01 2.882999992370605469e+01 2.876000022888183594e+01 2.871500015258789062e+01 2.860499954223632812e+01 2.851000022888183594e+01 2.838999938964843750e+01 2.826499938964843750e+01
2.557500076293945312e+01 2.570499992370605469e+01 2.586000061035156250e+01 2.601000022888183594e+01 2.607500076293945312e+01 2.613500022888183594e+01 2.625499916076660156e+01 2.643499946594238281e+01 2.662999916076660156e+01 2.678499984741210938e+01 2.695999908447265625e+01 2.698500061035156250e+01 2.716500091552734375e+01 2.734499931335449219e+01 2.743499946594238281e+01 2.748999977111816406e+01 2.750000000000000000e+01 2.773500061035156250e+01 2.812999916076660156e+01 2.847999954223632812e+01 2.877000045776367188e+01 2.901000022888183594e+01 2.906500053405761719e+01 2.903000068664550781e+01 2.907999992370605469e+01 2.910000038146972656e+01 2.920999908447265625e+01 2.931999969482421875e+01 2.945999908447265625e+01 2.958499908447265625e+01 2.982500076293945312e+01 3.003499984741210938e+01 3.018499946594238281e+01 3.029500007629394531e+01 3.038999938964843750e+01 3.047999954223632812e+01 3.052000045776367188e+01 3.062000083923339844e+01 3.069499969482421875e+01 3.072500038146972656e+01 3.083499908447265625e+01 3.089999961853027344e+01 3.093499946594238281e+01 3.103000068664550781e+01 3.112500000000000000e+01 3.119000053405761719e+01 3.128000068664550781e+01 3.143499946594238281e+01 3.156500053405761719e+01 3.163500022888183594e+01 3.164999961853027344e+01 3.164500045776367188e+01 3.160499954223632812e+01 3.156999969482421875e+01 3.143499946594238281e+01 3.170000076293945312e+01 3.173999977111816406e+01 3.196999931335449219e+01 3.223500061035156250e+01 3.250000000000000000e+01 3.276499938964843750e+01 3.309500122070312500e+01 3.329000091552734375e+01 3.328499984741210938e+01 3.320999908447265625e+01 3.313999938964843750e+01 3.306999969482421875e+01 3.297499847412109375e+01 3.278499984741210938e+01 3.258000183105468750e+01 3.237500000000000000e+01 3.222999954223632812e+01 3.208000183105468750e+01 3.191500091552734375e+01 3.176000022888183594e+01 3.162000083923339844e+01 3.166500091552734375e+01 3.167000007629394531e+01 3.156500053405761719e+01 3.143000030517578125e+01 3.138500022888183594e+01 3.129000091552734375e+01 3.122500038146972656e+01 3.101000022888183594e+01 3.052000045776367188e+01 3.028000068664550781e+01 3.029999923706054688e+01 3.023999977111816406e+01 3.030500030517578125e+01 3.036000061035156250e+01 3.036499977111816406e+01 3.056999969482421875e+01 3.077000045776367188e+01 3.096500015258789062e+01 3.110499954223632812e+01 3.117000007629394531e+01 3.109000015258789062e+01 3.094499969482421875e+01 3.090500068664550781e+01 3.078499984741210938e+01 3.063999938964843750e+01 3.051499938964843750e+01 3.044000053405761719e+01 3.034499931335449219e+01 3.014500045776367188e+01 2.999500083923339844e+01 2.985000038146972656e+01 2.967000007629394531e+01 2.945499992370605469e+01 2.927000045776367188e+01 2.913999938964843750e+01 2.897999954223632812e+01 2.884000015258789062e+01 2.871999931335449219e+01 2.860000038146972656e+01 2.855500030517578125e+01 2.847999954223632812e+01 2.838500022888183594e+01 2.816500091552734375e+01
2.548500061035156250e+01 2.563500022888183594e+01 2.577000045776367188e+01 2.587999916076660156e+01 2.593499946594238281e+01 2.602000045776367188e+01 2.611000061035156250e+01 2.629500007629394531e+01 2.646500015258789062e+01 2.661000061035156250e+01 2.675000000000000000e+01 2.679999923706054688e+01 2.703499984741210938e+01 2.712000083923339844e+01 2.719499969482421875e+01 2.725499916076660156e+01 2.736499977111816406e+01 2.764999961853027344e+01 2.805500030517578125e+01 2.837000083923339844e+01 2.863500022888183594e+01 2.878499984741210938e+01 2.880500030517578125e+01 2.875000000000000000e+01 2.881500053405761719e+01 2.882500076293945312e+01 2.900000000000000000e+01 2.917000007629394531e+01 2.927000045776367188e+01 2.939999961853027344e+01 2.967000007629394531e+01 2.981999969482421875e+01 2.995000076293945312e+01 3.009000015258789062e+01 3.019000053405761719e+01 3.025499916076660156e+01 3.029500007629394531e+01 3.039999961853027344e+01 3.045999908447265625e+01 3.048999977111816406e+01 3.061499977111816406e+01 3.064999961853027344e+01 3.065999984741210938e+01 3.078499984741210938e+01 3.083499908447265625e+01 3.088999938964843750e+01 3.105999946594238281e+01 3.122500038146972656e+01 3.132999992370605469e+01 3.141500091552734375e+01 3.145499992370605469e+01 3.146999931335449219e+01 3.144499969482421875e+01 3.142499923706054688e+01 3.136000061035156250e+01 3.147500038146972656e+01 3.167499923706054688e+01 3.198500061035156250e+01 3.222000122070312500e+01 3.236000061035156250e+01 3.264500045776367188e+01 3.291500091552734375e+01 3.313999938964843750e+01 3.311000061035156250e+01 3.305500030517578125e+01 3.297999954223632812e+01 3.288499832153320312e+01 3.272499847412109375e+01 3.250000000000000000e+01 3.226499938964843750e+01 3.206000137329101562e+01 3.187500000000000000e+01 3.175000000000000000e+01 3.164500045776367188e+01 3.155999946594238281e+01 3.147500038146972656e+01 3.141500091552734375e+01 3.147999954223632812e+01 3.138999938964843750e+01 3.130500030517578125e+01 3.123999977111816406e+01 3.116500091552734375e+01 3.108499908447265625e+01 3.095999908447265625e+01 3.062000083923339844e+01 3.022999954223632812e+01 3.001000022888183594e+01 3.000499916076660156e+01 2.997500038146972656e+01 3.007999992370605469e+01 3.011499977111816406e+01 3.030500030517578125e+01 3.048999977111816406e+01 3.061000061035156250e+01 3.076499938964843750e+01 3.088500022888183594e+01 3.087500000000000000e+01 3.078000068664550781e+01 3.078000068664550781e+01 3.067499923706054688e+01 3.055999946594238281e+01 3.043499946594238281e+01 3.029500007629394531e+01 3.022500038146972656e+01 3.010499954223632812e+01 2.995999908447265625e+01 2.978499984741210938e+01 2.955500030517578125e+01 2.936499977111816406e+01 2.922500038146972656e+01 2.907500076293945312e+01 2.895000076293945312e+01 2.876499938964843750e+01 2.867499923706054688e+01 2.862000083923339844e+01 2.854999923706054688e+01 2.845999908447265625e+01 2.842499923706054688e+01 2.816500091552734375e+01
2.540999984741210938e+01 2.553000068664550781e+01 2.562500000000000000e+01 2.570000076293945312e+01 2.576499938964843750e+01 2.582999992370605469e+01 2.596500015258789062e+01 2.619499969482421875e+01 2.629999923706054688e+01 2.646500015258789062e+01 2.655500030517578125e+01 2.666500091552734375e+01 2.674500083923339844e+01 2.682500076293945312e+01 2.698999977111816406e+01 2.711499977111816406e+01 2.732999992370605469e+01 2.759000015258789062e+01 2.790999984741210938e+01 2.817000007629394531e+01 2.842499923706054688e+01 2.854999923706054688e+01 2.852499961853027344e+01 2.850499916076660156e+01 2.853499984741210938e+01 2.861499977111816406e+01 2.879500007629394531e+01 2.900000000000000000e+01 2.901499938964843750e+01 2.931999969482421875e+01 2.948999977111816406e+01 2.962000083923339844e+01 2.970499992370605469e+01 2.979000091552734375e+01 2.991500091552734375e+01 3.002000045776367188e+01 3.010000038146972656e+01 3.020499992370605469e+01 3.023999977111816406e+01 3.029000091552734375e+01 3.037500000000000000e+01 3.040500068664550781e+01 3.044000053405761719e+01 3.055999946594238281e+01 3.058499908447265625e+01 3.064500045776367188e+01 3.078000068664550781e+01 3.104500007629394531e+01 3.110000038146972656e+01 3.116500091552734375e+01 3.119499969482421875e+01 3.123999977111816406e+01 3.125499916076660156e+01 3.126499938964843750e+01 3.118499946594238281e+01 3.142499923706054688e+01 3.170000076293945312e+01 3.200999832153320312e+01 3.212500000000000000e+01 3.231499862670898438e+01 3.251499938964843750e+01 3.278499984741210938e+01 3.291500091552734375e+01 3.290000152587890625e+01 3.283000183105468750e+01 3.275500106811523438e+01 3.265000152587890625e+01 3.243000030517578125e+01 3.216500091552734375e+01 3.194000053405761719e+01 3.173999977111816406e+01 3.156999969482421875e+01 3.143000030517578125e+01 3.138999938964843750e+01 3.135000038146972656e+01 3.133499908447265625e+01 3.126499938964843750e+01 3.121500015258789062e+01 3.120000076293945312e+01 3.114500045776367188e+01 3.107500076293945312e+01 3.104000091552734375e+01 3.090999984741210938e+01 3.080999946594238281e+01 3.060499954223632812e+01 3.025499916076660156e+01 2.988500022888183594e+01 2.974500083923339844e+01 2.964500045776367188e+01 2.976499938964843750e+01 2.983499908447265625e+01 3.004000091552734375e+01 3.020499992370605469e+01 3.027499961853027344e+01 3.043499946594238281e+01 3.051499938964843750e+01 3.062500000000000000e+01 3.062500000000000000e+01 3.056999969482421875e+01 3.051000022888183594e+01 3.039999961853027344e+01 3.029000091552734375e+01 3.012500000000000000e+01 3.007999992370605469e+01 2.999500083923339844e+01 2.989999961853027344e+01 2.984499931335449219e+01 2.968000030517578125e+01 2.942499923706054688e+01 2.919499969482421875e+01 2.895999908447265625e+01 2.876499938964843750e+01 2.865500068664550781e+01 2.857500076293945312e+01 2.853000068664550781e+01 2.848999977111816406e+01 2.844499969482421875e+01 2.830999946594238281e+01 2.802499961853027344e+01
